ncols         298
nrows         32
xllcorner     100260
yllcorner     102740
cellsize      10
NODATA_value  -9999
2356.6888 2356.0407 2354.7797 2353.9506 2352.8608 2351.7293 2350.7653 2350.1020 2349.1859 2347.9349 2347.1295 2346.2762 2344.8791 2344.0668 2343.3993 2341.9846 2341.4183 2340.3221 2339.1122 2338.1102 2337.4937 2336.1535 2335.5022 2334.5035 2333.2608 2332.5352 2331.3046 2330.6060 2329.6520 2328.6932 2327.4587 2326.4025 2325.4004 2324.5139 2323.5463 2322.6433 2321.6344 2320.4775 2319.9090 2318.6022 2317.5439 2316.7803 2315.7351 2314.9543 2313.8071 2312.7865 2311.8796 2311.2014 2309.8204 2309.0764 2307.9591 2307.1125 2306.0014 2305.1486 2304.0886 2303.1761 2302.1858 2301.0740 2300.2043 2299.2846 2298.0739 2297.4076 2296.4236 2295.2825 2294.2310 2293.3865 2292.5674 2291.4123 2290.7004 2289.6990 2288.2656 2287.2953 2286.4193 2285.7008 2284.5882 2283.7994 2282.5322 2281.4834 2280.6435 2279.7479 2278.6105 2277.6461 2276.8470 2275.8147 2274.9416 2274.0630 2272.7224 2271.8419 2270.9540 2269.7372 2268.8513 2268.0090 2266.9380 2266.2330 2264.9344 2263.9665 2263.1606 2262.1471 2261.2227 2260.3979 2259.0674 2258.2164 2257.4182 2256.1573 2255.5321 2254.1211 2253.3049 2252.3324 2251.3000 2250.3245 2249.4210 2248.4382 2247.7347 2246.4304 2245.3836 2244.6853 2243.6736 2242.8349 2241.4171 2240.9188 2239.8466 2238.5642 2237.7748 2236.7632 2235.7569 2234.7603 2233.8591 2232.8273 2231.8365 2230.9442 2230.1039 2228.7254 2228.1620 2226.7853 2226.0609 2225.0458 2224.1074 2222.9422 2221.9025 2221.2849 2220.1802 2219.2953 2218.3721 2217.0192 2216.3574 2215.3799 2214.5087 2213.5184 2212.1728 2211.2865 2210.6647 2209.2871 2208.6593 2207.4581 2206.5842 2205.6369 2204.5469 2203.5421 2202.8239 2201.4678 2200.8926 2199.6851 2198.6943 2197.7944 2196.6805 2195.9498 2194.8668 2193.6276 2192.7511 2191.9556 2190.9835 2189.8099 2189.0363 2187.9374 2187.7682 2189.0562 2190.1271 2191.0183 2191.9313 2193.0196 2193.7031 2194.9075 2195.7592 2196.9649 2197.8133 2198.7274 2199.8349 2200.7303 2201.4432 2202.7860 2203.5035 2204.5940 2205.5207 2206.6586 2207.4011 2208.2835 2209.5751 2210.5049 2211.5929 2212.3254 2213.2100 2214.2424 2215.0987 2216.0391 2217.2994 2218.0726 2219.4118 2220.1328 2221.2416 2222.0580 2223.2400 2223.9401 2224.9177 2226.1910 2226.9440 2227.8171 2229.0839 2229.7268 2231.0990 2232.0415 2232.7954 2233.8886 2234.8888 2235.5639 2236.7567 2237.8440 2238.6015 2239.8331 2240.6360 2241.6790 2242.5018 2243.6196 2244.3597 2245.3207 2246.7520 2247.5757 2248.5308 2249.3583 2250.3429 2251.2747 2252.5090 2253.6002 2254.1745 2255.0868 2256.2919 2257.0641 2258.0226 2259.1090 2260.0544 2261.2802 2262.3290 2263.2038 2264.2681 2264.9039 2266.2567 2267.1156 2268.1305 2268.8292 2270.0840 2270.7043 2271.9473 2272.8653 2273.8659 2274.9379 2275.7210 2276.8005 2277.9034 2278.7392 2279.8469 2280.6082 2281.6529 2282.5112 2283.8276 2284.5941 2285.4854 2286.6062 2287.4418 2288.3790 2289.5160 2290.4032 2291.2375 2292.4597 2293.3905 2294.2709 2295.0923 2296.1951 2297.4558 2298.1171 2299.0963 2300.1595 2301.1142 2302.3122 2303.2611 2304.2160 2305.1565 2305.9948 2307.0722 2308.1933
2355.3387 2354.3332 2353.6158 2352.6020 2351.3566 2350.6141 2349.4945 2348.5973 2347.6542 2346.3991 2345.4676 2344.5912 2343.9066 2342.4968 2341.7460 2340.8985 2339.9673 2338.6375 2337.5410 2337.0297 2335.9544 2334.9583 2333.8359 2332.7348 2332.0944 2330.8862 2329.8151 2329.1410 2327.8791 2327.2131 2326.0366 2325.2380 2323.8595 2323.2180 2322.1761 2321.1799 2319.9419 2319.1727 2318.1482 2317.3725 2315.9668 2315.0775 2314.1361 2313.3393 2312.2965 2311.4451 2310.1619 2309.5534 2308.2256 2307.4526 2306.5921 2305.1709 2304.2057 2303.3261 2302.5410 2301.2633 2300.2983 2299.5035 2298.6074 2297.7161 2296.5058 2295.7097 2294.4527 2293.5622 2292.9003 2291.7185 2290.8949 2289.5963 2288.6309 2287.7846 2286.6308 2285.8136 2284.5849 2283.6938 2282.9800 2282.0900 2280.6376 2279.7050 2278.6776 2277.7333 2276.7406 2276.1860 2274.7511 2273.9243 2272.8904 2272.1543 2271.2518 2270.1063 2269.1626 2268.2764 2267.3789 2266.2552 2265.1292 2264.0998 2263.3903 2262.1702 2261.1500 2260.2992 2259.4083 2258.5022 2257.2365 2256.3770 2255.5437 2254.3398 2253.5256 2252.5469 2251.2055 2250.4667 2249.3426 2248.3752 2247.4130 2246.4575 2245.5111 2244.7231 2243.5892 2242.7951 2241.5160 2240.8844 2239.5209 2238.7358 2237.6522 2236.6488 2235.9560 2234.7429 2233.5680 2232.6852 2231.7815 2230.7791 2229.9098 2228.9282 2227.7637 2226.8073 2226.0622 2225.0963 2223.9705 2222.8331 2222.1676 2220.9380 2220.1192 2219.2237 2218.0503 2217.1236 2216.3640 2215.1804 2213.9382 2213.2599 2212.1223 2210.9859 2210.2516 2209.1751 2208.5178 2207.4188 2206.4166 2205.1664 2204.2391 2203.4559 2202.3529 2201.4169 2200.2332 2199.5255 2198.5654 2197.4628 2196.7500 2195.5523 2194.2955 2193.8027 2192.3927 2191.3667 2190.5884 2189.7755 2188.5874 2187.8799 2186.7550 2185.9530 2185.9211 2186.6152 2187.4387 2188.6966 2189.5541 2190.8217 2191.8500 2192.6736 2193.4731 2194.7831 2195.5723 2196.6429 2197.5720 2198.3538 2199.6850 2200.4750 2201.6594 2202.3049 2203.3264 2204.5460 2205.4557 2206.0771 2207.2219 2208.4073 2209.1772 2210.1461 2211.0954 2212.0697 2212.9543 2214.3166 2215.0986 2216.3332 2217.2982 2218.1289 2219.2821 2220.2054 2221.2449 2222.0906 2222.8342 2224.1221 2225.0790 2226.0587 2226.9218 2227.6634 2228.6683 2229.8442 2230.9066 2231.6597 2232.6335 2233.6237 2234.8997 2235.8655 2236.9604 2237.5223 2238.9071 2239.5968 2240.4543 2241.4980 2242.7159 2243.6844 2244.3856 2245.7673 2246.7283 2247.5143 2248.4822 2249.3764 2250.6012 2251.5534 2252.5087 2253.4094 2254.1497 2255.5792 2256.2908 2257.5699 2258.3213 2259.1723 2260.0676 2261.3296 2262.4260 2263.0470 2264.2185 2265.1564 2266.1005 2267.0153 2268.3612 2269.1359 2269.8753 2271.2325 2272.1849 2273.1096 2273.9990 2275.0177 2275.9612 2277.1075 2277.8669 2278.7259 2280.1199 2280.8960 2281.6414 2282.6063 2283.6568 2284.6595 2285.8137 2286.8588 2287.8320 2288.5556 2289.9349 2290.4807 2291.7911 2292.8273 2293.7487 2294.7941 2295.7563 2296.4488 2297.6424 2298.6502 2299.3478 2300.3808 2301.5906 2302.4575 2303.5497 2304.3096 2305.4065 2306.4013
2353.8258 2353.0004 2351.8906 2351.1546 2350.1437 2349.1616 2348.1587 2347.0515 2346.2531 2345.0025 2344.3648 2343.3212 2342.0204 2341.1838 2340.3682 2339.0531 2338.1628 2337.4600 2336.4183 2335.2794 2334.1092 2333.2578 2332.1546 2331.1850 2330.5643 2329.4232 2328.2733 2327.3817 2326.2402 2325.5181 2324.5250 2323.6781 2322.2566 2321.5810 2320.7062 2319.3861 2318.4947 2317.8180 2316.4116 2315.7858 2314.4765 2313.6722 2312.8153 2311.6956 2310.5492 2309.8278 2308.6804 2307.8102 2306.5430 2305.9810 2304.5395 2303.7474 2302.6380 2301.6499 2300.7671 2299.9300 2298.9535 2297.6758 2297.0957 2295.8933 2294.9470 2293.6724 2292.7958 2291.7761 2291.1287 2289.9874 2289.0524 2288.2341 2287.1854 2286.0432 2284.9037 2284.2683 2283.0800 2281.8425 2281.3073 2279.9768 2279.3208 2277.9779 2277.0954 2276.2646 2275.0525 2274.1047 2272.9591 2272.3713 2271.1933 2269.9984 2269.1223 2268.1838 2267.5156 2266.1674 2265.2227 2264.4596 2263.2424 2262.3450 2261.2639 2260.5967 2259.4660 2258.4912 2257.1893 2256.1914 2255.3066 2254.3935 2253.2479 2252.4288 2251.6887 2250.5319 2249.5805 2248.5508 2247.6488 2246.4754 2245.7310 2244.7539 2243.3709 2242.7541 2241.7691 2240.6436 2239.6124 2238.8021 2237.8570 2236.6228 2235.9681 2234.6284 2233.6161 2232.7990 2231.7490 2230.8679 2229.8900 2228.5920 2227.9739 2226.8155 2225.7470 2224.7772 2223.7265 2222.9767 2221.7923 2220.7503 2219.8287 2219.1182 2217.8634 2216.8611 2215.8273 2214.8130 2214.1316 2213.2467 2212.1011 2211.1615 2210.1984 2209.2599 2208.3485 2206.9156 2206.2429 2205.0966 2204.0203 2203.0403 2201.9514 2201.4003 2200.3883 2199.2160 2198.2965 2197.4138 2196.0519 2195.4443 2194.3472 2193.5498 2192.4882 2191.3369 2190.5722 2189.4093 2188.2003 2187.4205 2186.4057 2185.2341 2184.3026 2183.2747 2183.2924 2184.3476 2185.6479 2186.3750 2187.5438 2188.4899 2189.1986 2190.5032 2191.2154 2192.4035 2193.3835 2194.3494 2195.5163 2196.0909 2197.3979 2198.4546 2199.4038 2200.1516 2201.0215 2202.2534 2203.4001 2204.1916 2205.0725 2205.9396 2206.9589 2208.1780 2209.1118 2210.0061 2211.0646 2212.0239 2213.0655 2213.8288 2214.8634 2216.2110 2216.8724 2217.9855 2218.8282 2219.9298 2220.8840 2221.7891 2223.0340 2223.9056 2224.7318 2225.8358 2226.8493 2227.7976 2228.9264 2229.6398 2230.8544 2231.9051 2232.7805 2233.5257 2234.8894 2235.6882 2236.9186 2237.7357 2238.6965 2239.4339 2240.8419 2241.4613 2242.8235 2243.5161 2244.3930 2245.3763 2246.7440 2247.6000 2248.6506 2249.3619 2250.3384 2251.2853 2252.3744 2253.5313 2254.5793 2255.4044 2256.5076 2257.4061 2258.5438 2259.4632 2260.3247 2261.3573 2262.1686 2263.3031 2264.4996 2265.4392 2266.3822 2267.3972 2268.3614 2269.2869 2270.3077 2271.4479 2272.4498 2273.2432 2274.0421 2275.1980 2276.2328 2277.2010 2278.1183 2279.2671 2280.0526 2280.8811 2282.1802 2282.9701 2284.1550 2285.1041 2285.8103 2286.8527 2287.8050 2289.0877 2289.8520 2291.1489 2291.7138 2292.8250 2293.9028 2295.0020 2296.1229 2296.6511 2298.0337 2298.9083 2299.8962 2300.8743 2301.6596 2302.8135 2303.5529 2304.5071
2352.5927 2351.6667 2350.7219 2349.9292 2348.5337 2347.9445 2346.7607 2345.8936 2344.7857 2343.5372 2342.5236 2341.5440 2340.7525 2339.7861 2338.5794 2337.9241 2336.6119 2335.8062 2334.8059 2333.8627 2332.7377 2331.6352 2330.7660 2329.6902 2329.1147 2328.1111 2326.9894 2325.7496 2324.9912 2323.9886 2322.9207 2321.8985 2320.8655 2319.9884 2319.1962 2317.9192 2316.9538 2316.2482 2314.8149 2314.0697 2313.1422 2312.1031 2311.0700 2310.1260 2308.8367 2307.8795 2307.2207 2306.3254 2305.0135 2304.2891 2303.1820 2302.0365 2300.9169 2299.9215 2298.9973 2298.0384 2297.2284 2296.0508 2295.2223 2293.9909 2293.4117 2292.1371 2291.3824 2290.1493 2288.9986 2288.4789 2287.2080 2286.4390 2285.1266 2284.2860 2283.2601 2282.5077 2281.5178 2280.1969 2279.4376 2278.3782 2277.2863 2276.5293 2275.5191 2274.4478 2273.4461 2272.3277 2271.2186 2270.4229 2269.4538 2268.6322 2267.3172 2266.3907 2265.6538 2264.3637 2263.2214 2262.6101 2261.3520 2260.6015 2259.4160 2258.3762 2257.6127 2256.4515 2255.3831 2254.6216 2253.3169 2252.4662 2251.5454 2250.3433 2249.4741 2248.5897 2247.4423 2246.5096 2245.4450 2244.7040 2243.6566 2242.5370 2241.4207 2240.8163 2239.6849 2238.6969 2237.6011 2236.5851 2235.6198 2234.4823 2233.7202 2232.5997 2231.8265 2230.9826 2229.6489 2228.6393 2227.6636 2226.5817 2225.6738 2224.7810 2224.0240 2223.0305 2221.8419 2220.7943 2219.8726 2218.9951 2217.9084 2216.9965 2215.8747 2215.0333 2214.0632 2212.7884 2211.6977 2210.9247 2209.8916 2208.9886 2208.1206 2206.8893 2205.7704 2205.0742 2203.9478 2202.7637 2202.0926 2201.0754 2200.1849 2198.9388 2198.2642 2197.1939 2196.2583 2195.0555 2194.0641 2192.8567 2192.0061 2190.8867 2190.3358 2189.0699 2188.3676 2187.0550 2186.4025 2185.3161 2184.0127 2183.1396 2182.4287 2181.2989 2181.3857 2182.0972 2183.3328 2184.2091 2185.3630 2185.9124 2187.1880 2187.9382 2189.0345 2189.8887 2191.2645 2191.8893 2193.0748 2193.9726 2194.8594 2196.0685 2196.8336 2198.1480 2199.2094 2200.1737 2200.9583 2201.7775 2202.7755 2204.0661 2204.8796 2205.7588 2206.8161 2207.8562 2209.0246 2210.0005 2210.9053 2211.7985 2212.7395 2213.8153 2215.0728 2215.8826 2216.9301 2217.8793 2219.0209 2219.8585 2220.8630 2221.6064 2222.7217 2223.9480 2224.6239 2225.6217 2227.0108 2227.7578 2228.8975 2229.9476 2230.5318 2231.8457 2232.5825 2233.4947 2234.6471 2235.7519 2236.9054 2237.6574 2238.4990 2239.8419 2240.6357 2241.5553 2242.5752 2243.8328 2244.5101 2245.7860 2246.8573 2247.6837 2248.4832 2249.6601 2250.4543 2251.8129 2252.6182 2253.6788 2254.3722 2255.4025 2256.7122 2257.3673 2258.7030 2259.5963 2260.2771 2261.6403 2262.2810 2263.5688 2264.5403 2265.6331 2266.2513 2267.6592 2268.2810 2269.2709 2270.5022 2271.2780 2272.3908 2273.2528 2274.2975 2275.2819 2276.3984 2277.1577 2278.2477 2279.2351 2280.5533 2281.1265 2282.4974 2283.2519 2284.4938 2285.2699 2286.3221 2287.0209 2288.3897 2289.0545 2290.1188 2291.1598 2292.1202 2293.3594 2294.4442 2294.9822 2296.0499 2296.9397 2298.3229 2299.3527 2299.9354 2300.9465 2301.9875 2303.2637
2351.1227 2350.2610 2349.3310 2348.3979 2347.1334 2346.4469 2345.1712 2344.4344 2343.5312 2342.2167 2341.3172 2340.3714 2339.2669 2338.5025 2337.1217 2336.1825 2335.1049 2334.4158 2333.1282 2332.4153 2331.5791 2330.3083 2329.3645 2328.3859 2327.4673 2326.5200 2325.3525 2324.5788 2323.1764 2322.2431 2321.3200 2320.5886 2319.1953 2318.5819 2317.2784 2316.3688 2315.6468 2314.2005 2313.5733 2312.6572 2311.3896 2310.5469 2309.4302 2308.5362 2307.3688 2306.4644 2305.4680 2304.6987 2303.4552 2302.3088 2301.3155 2300.2931 2299.7297 2298.5740 2297.3859 2296.5688 2295.5490 2294.7358 2293.2639 2292.6304 2291.4140 2290.4137 2289.5505 2288.3522 2287.4692 2286.4326 2285.3046 2284.5497 2283.7880 2282.7351 2281.4007 2280.5036 2279.5131 2278.4442 2277.4980 2276.4301 2275.7683 2274.6744 2273.4801 2272.6440 2271.3461 2270.3650 2269.4454 2268.5287 2267.4348 2266.6918 2265.6623 2264.5699 2263.7323 2262.8223 2261.6488 2260.6824 2259.5246 2258.4367 2257.8361 2256.6089 2255.7549 2254.7439 2253.7874 2252.7014 2251.7970 2250.5561 2249.8818 2248.5891 2247.7454 2246.6160 2245.6641 2244.7798 2243.8579 2242.5580 2241.8869 2240.7285 2239.6457 2238.8301 2237.5347 2236.6270 2235.6330 2234.8750 2233.5784 2232.7042 2231.9693 2230.8212 2229.8587 2228.7317 2227.9654 2226.7339 2225.9719 2224.8634 2223.8414 2222.5641 2221.5782 2220.6987 2219.7403 2218.9697 2217.9886 2216.6114 2215.9537 2214.5968 2213.6487 2212.6304 2211.6811 2210.7261 2209.7982 2208.9167 2207.9804 2206.6219 2205.8902 2204.8249 2203.7461 2202.8385 2201.8158 2201.0890 2199.6919 2198.6233 2197.7796 2196.9279 2196.1146 2194.9404 2193.6721 2192.9790 2191.7350 2190.7543 2189.8658 2188.8154 2187.9448 2186.8998 2185.7566 2184.7492 2183.9869 2182.6986 2182.1085 2180.9015 2179.9238 2179.0370 2179.1647 2180.1112 2180.8833 2182.1063 2182.7919 2183.8767 2185.0248 2186.1405 2187.0566 2187.7036 2188.7653 2190.0107 2191.0775 2191.6728 2192.8136 2193.7373 2195.0346 2196.1244 2196.7957 2197.8228 2198.7062 2199.9668 2200.6379 2201.9425 2202.8711 2203.7188 2204.8367 2205.6804 2206.9104 2207.9010 2208.8553 2209.7300 2211.0170 2211.6723 2212.6975 2213.5695 2214.6756 2216.0222 2216.9846 2217.9622 2218.6110 2219.6057 2220.6893 2221.8453 2222.7401 2223.6564 2224.9886 2225.5556 2226.7770 2227.7824 2228.7122 2229.9807 2230.5582 2231.6488 2232.5874 2233.6590 2234.9616 2235.7879 2236.5696 2237.6631 2238.5140 2239.8353 2240.6956 2241.6354 2242.8591 2243.5278 2244.6891 2245.6846 2246.4916 2247.7127 2248.7527 2249.6539 2250.6091 2251.4466 2252.7312 2253.9102 2254.5694 2255.5774 2256.8509 2257.5131 2258.5800 2259.4539 2260.6562 2261.8319 2262.7171 2263.7766 2264.6569 2265.8402 2266.5996 2267.4613 2268.4928 2269.7740 2270.4748 2271.4544 2272.6272 2273.7059 2274.7791 2275.3876 2276.4414 2277.6952 2278.4096 2279.6539 2280.5482 2281.6066 2282.7631 2283.3623 2284.3539 2285.6211 2286.5022 2287.4603 2288.5821 2289.3668 2290.5981 2291.3109 2292.4219 2293.3817 2294.7451 2295.4217 2296.6699 2297.5081 2298.4275 2299.5630 2300.4370 2301.6131
2349.6711 2348.8469 2348.0980 2346.6979 2345.9621 2345.0989 2344.1077 2342.6738 2342.0575 2340.8561 2340.0650 2339.0585 2337.8612 2337.0029 2335.6563 2334.7222 2333.8968 2333.0646 2331.7452 2330.6482 2329.6645 2329.0839 2328.0662 2327.0588 2325.9925 2325.0138 2323.9448 2322.6822 2321.8761 2320.7480 2319.6373 2318.8439 2317.7004 2316.7919 2315.9979 2314.8613 2313.8119 2312.7485 2311.9361 2310.9391 2309.9686 2308.7240 2307.9916 2306.6981 2305.7180 2304.6143 2303.8426 2302.6257 2302.0169 2300.8426 2299.9226 2298.7075 2297.9934 2296.8973 2295.5919 2294.7710 2293.9708 2292.7625 2291.8567 2290.9857 2289.6006 2288.9935 2287.7946 2287.0079 2285.5884 2284.7540 2283.6844 2282.6760 2281.9739 2281.0683 2279.6339 2278.6403 2277.8856 2276.5823 2275.6423 2274.8433 2273.6415 2272.6422 2271.5689 2270.7014 2270.0381 2268.7114 2267.6208 2266.8219 2266.0209 2265.0130 2263.9063 2262.8033 2261.6958 2260.5894 2259.6938 2258.8554 2257.8733 2256.6054 2255.7940 2255.0154 2253.8178 2252.6957 2251.8666 2250.9649 2250.0304 2248.7170 2247.7177 2247.0199 2245.7963 2245.0227 2243.6697 2242.5416 2242.0143 2240.9412 2239.9697 2238.8003 2237.5502 2236.7789 2235.9923 2234.8048 2233.7310 2232.9545 2231.9500 2230.9887 2229.8582 2228.9103 2227.9659 2226.5095 2225.7362 2224.6032 2223.9178 2222.6983 2221.7247 2220.7362 2219.5265 2218.5597 2217.6005 2216.9136 2215.6045 2214.5726 2213.9190 2212.6816 2211.8698 2210.9483 2209.7254 2208.6605 2207.8623 2206.8676 2205.6045 2204.5843 2203.6124 2202.6501 2201.6912 2200.7938 2199.6862 2198.6750 2197.9302 2196.4755 2195.5059 2194.9598 2193.9464 2192.7683 2191.8683 2190.4946 2189.9329 2188.9329 2187.6152 2186.4648 2185.7610 2184.6125 2183.6772 2182.8958 2181.5168 2180.5080 2179.4728 2178.7441 2177.7113 2176.6298 2176.9160 2177.4754 2178.5039 2179.7565 2180.7907 2181.9143 2182.9100 2183.5344 2184.7682 2185.5302 2186.7993 2187.8214 2188.7652 2189.5800 2190.9533 2191.6405 2192.8758 2193.7608 2194.5689 2195.4800 2196.8576 2197.7930 2198.5307 2199.6139 2200.7535 2201.5627 2202.7144 2203.5433 2204.5142 2205.7846 2206.7266 2207.7113 2208.5722 2209.6098 2210.5790 2211.9523 2212.9527 2213.8486 2214.5972 2215.7655 2216.8695 2217.5289 2218.9796 2219.5769 2220.9517 2221.8608 2222.8008 2223.9645 2224.6137 2225.6844 2226.7306 2227.9679 2228.8258 2229.7096 2230.5883 2231.6274 2232.6007 2233.8461 2234.7531 2235.9759 2236.8324 2237.9360 2238.9965 2239.6477 2240.7120 2241.7448 2242.9522 2243.8095 2244.7223 2245.9166 2246.5924 2247.5792 2248.8302 2249.8962 2250.7547 2251.6841 2252.8160 2254.0014 2255.0199 2255.8728 2256.9291 2257.6852 2259.0265 2259.8521 2260.6986 2261.8891 2262.7754 2263.9486 2264.8647 2265.8584 2266.7519 2267.9859 2268.9278 2269.9535 2270.8911 2271.8819 2272.7793 2273.6427 2274.6521 2275.7552 2277.0202 2277.9702 2278.9991 2279.7870 2280.6006 2281.8101 2282.9938 2283.5905 2285.0212 2285.9738 2286.8406 2287.8847 2288.7712 2289.7760 2291.0131 2291.7600 2292.8657 2293.8122 2294.7910 2295.5926 2296.9768 2297.6824 2298.9410 2299.9382
2348.3429 2347.6801 2346.2979 2345.5033 2344.4753 2343.6159 2342.2894 2341.2469 2340.6580 2339.5724 2338.5713 2337.2885 2336.4991 2335.2816 2334.2434 2333.6188 2332.6122 2331.3605 2330.3086 2329.5472 2328.2587 2327.2954 2326.6095 2325.2902 2324.5628 2323.2979 2322.4163 2321.4232 2320.4675 2319.5808 2318.2415 2317.1282 2316.1408 2315.1231 2314.2722 2313.2069 2312.1167 2311.0802 2310.5166 2309.1728 2308.0379 2307.1312 2306.4223 2305.1534 2304.3627 2303.4655 2302.3797 2301.4382 2300.2388 2299.3616 2298.2892 2297.3728 2296.0516 2295.3686 2293.9669 2292.9819 2292.0532 2291.3054 2290.2504 2289.3781 2288.0453 2287.2588 2286.2681 2285.2510 2284.2998 2283.2186 2282.0306 2281.1507 2280.3307 2279.1753 2278.1195 2277.1360 2276.1721 2275.1773 2274.0112 2273.1192 2272.1554 2271.2775 2270.1926 2269.0624 2268.2097 2267.1745 2266.1168 2264.8783 2263.8355 2263.0788 2261.9534 2261.2193 2259.9187 2258.8440 2258.0537 2256.9667 2255.8949 2255.1338 2253.8649 2252.8383 2251.7992 2250.9134 2249.6863 2248.9926 2248.0619 2246.9222 2245.9774 2245.0614 2243.8072 2242.9604 2241.7865 2240.8287 2239.9308 2238.7348 2237.8240 2236.7566 2235.7211 2234.8292 2233.6748 2232.6850 2231.6428 2230.8063 2229.5813 2228.8962 2227.9221 2226.9686 2225.7617 2224.6606 2223.7191 2222.9872 2221.5670 2220.6462 2219.6768 2218.5293 2217.5721 2216.7219 2215.9260 2214.4540 2213.4690 2212.7532 2211.6992 2210.4584 2209.5683 2208.5792 2207.8652 2206.7462 2205.7339 2204.4106 2203.6607 2202.4495 2201.4966 2200.6931 2199.8271 2198.5366 2197.5008 2196.4052 2195.5693 2194.3285 2193.6140 2192.3738 2191.4059 2190.6666 2189.5045 2188.6828 2187.5499 2186.5444 2185.5629 2184.2835 2183.3541 2182.6132 2181.5642 2180.7175 2179.4284 2178.4447 2177.4297 2176.4888 2175.2939 2174.6034 2174.5749 2175.5206 2176.2645 2177.4728 2178.5084 2179.6873 2180.6288 2181.5286 2182.6962 2183.5489 2184.3068 2185.4454 2186.5164 2187.2885 2188.3187 2189.6382 2190.5505 2191.4583 2192.4645 2193.7976 2194.7178 2195.3240 2196.5975 2197.7483 2198.7131 2199.7993 2200.6161 2201.3849 2202.8172 2203.7595 2204.7361 2205.5114 2206.4246 2207.8460 2208.5494 2209.8750 2210.6194 2211.6090 2212.4658 2213.6201 2214.7366 2215.5455 2216.4790 2217.7309 2218.7249 2219.8321 2220.6536 2221.9153 2222.7603 2223.9316 2224.7984 2225.6998 2226.5463 2227.7311 2228.9282 2229.6266 2230.9817 2231.6081 2232.5844 2233.6475 2234.7204 2236.0242 2236.7234 2237.8513 2238.8226 2239.6937 2240.6721 2241.6658 2242.6442 2243.6554 2244.8778 2245.7384 2247.0328 2247.7731 2249.0446 2249.8568 2250.8053 2251.8836 2252.9872 2253.7646 2254.9820 2256.0498 2256.9293 2257.9181 2258.9678 2260.1870 2260.7463 2261.9763 2263.2329 2263.9232 2264.9637 2266.2408 2266.8809 2268.2030 2269.2599 2270.2028 2270.8273 2272.1158 2273.1718 2273.9227 2275.1382 2276.3069 2277.1141 2277.8404 2279.2964 2280.2223 2280.9960 2282.0364 2282.8737 2284.0443 2284.9600 2286.1638 2286.9172 2288.2026 2289.3312 2290.3556 2291.1892 2291.9658 2293.0228 2294.0924 2295.2578 2296.1811 2297.3967 2298.2469
2347.1149 2346.2585 2345.2342 2344.1668 2343.0458 2342.2835 2341.0945 2339.9038 2339.1148 2338.1759 2337.2145 2335.8554 2334.8403 2334.2010 2333.2256 2332.0317 2331.1647 2329.7204 2328.9822 2328.1403 2327.1573 2325.7476 2325.1286 2323.7697 2322.7026 2321.8203 2321.0012 2319.9267 2318.6233 2317.6489 2316.7819 2315.9489 2314.8442 2313.8257 2312.5336 2311.6079 2310.5139 2309.7961 2308.6281 2307.7405 2306.7594 2305.5824 2304.7494 2303.8291 2302.6615 2301.8619 2300.4770 2299.3647 2298.6947 2297.4704 2296.6319 2295.5141 2294.4028 2293.6022 2292.4303 2291.3249 2290.4779 2289.2533 2288.3225 2287.5942 2286.3512 2285.6421 2284.3423 2283.5918 2282.4766 2281.4841 2280.4204 2279.2959 2278.2993 2277.2801 2276.0998 2275.2637 2274.2567 2273.1222 2272.1026 2271.3123 2270.3690 2269.3287 2268.4866 2267.2457 2266.0308 2265.2218 2264.4185 2263.3214 2262.3637 2260.9903 2260.2856 2259.3788 2257.9878 2257.2490 2255.8901 2255.2054 2253.9146 2253.0691 2252.0394 2251.1315 2250.0447 2249.0764 2248.1142 2246.8453 2246.1333 2244.8931 2244.0875 2242.7780 2242.0244 2240.8027 2239.8537 2239.0664 2237.8377 2237.0491 2235.9815 2234.6418 2233.7049 2232.6653 2231.9557 2231.0336 2229.9150 2229.0568 2227.6660 2226.9645 2225.9903 2224.8240 2223.8966 2222.5326 2221.7935 2220.9200 2219.5875 2218.8188 2217.4620 2216.6094 2215.7881 2214.6878 2213.6885 2212.8356 2211.8714 2210.6637 2209.7520 2208.4858 2207.6577 2206.7384 2205.6521 2204.6169 2203.7204 2202.4234 2201.6847 2200.3353 2199.5945 2198.3048 2197.2599 2196.4616 2195.3627 2194.6379 2193.2731 2192.6354 2191.2264 2190.4506 2189.4883 2188.1608 2187.3335 2186.1799 2185.3657 2184.4953 2183.4200 2182.3004 2181.5042 2180.4922 2179.4630 2178.3683 2177.4147 2176.1636 2175.2688 2174.3016 2173.0876 2171.9908 2172.0104 2173.3685 2174.3044 2175.1257 2176.3016 2177.4545 2178.2243 2179.4753 2180.3346 2181.2189 2182.5079 2183.4318 2184.3074 2185.2141 2186.2181 2187.5866 2188.2464 2189.1295 2190.1590 2191.3733 2192.3956 2193.2444 2194.1846 2195.5941 2196.3369 2197.4300 2198.6614 2199.5423 2200.2876 2201.5778 2202.6050 2203.6803 2204.7040 2205.5773 2206.6677 2207.8003 2208.3935 2209.7920 2210.5138 2211.3892 2212.8231 2213.5731 2214.5830 2215.6210 2216.8580 2217.9179 2218.5390 2219.4724 2220.8853 2221.5989 2222.6634 2223.9322 2224.9839 2225.7653 2227.0391 2227.8339 2229.0160 2229.7152 2231.0785 2231.7800 2232.6911 2233.7177 2234.8718 2235.6880 2236.8922 2237.7315 2239.1724 2239.7468 2241.0243 2241.8134 2243.1339 2243.7489 2244.8834 2246.1744 2247.0263 2247.9236 2248.8905 2249.9702 2251.1507 2251.8499 2252.9107 2254.1343 2255.1698 2256.2293 2256.9014 2258.1826 2259.3924 2260.2132 2261.3859 2262.4028 2263.1081 2264.2505 2265.2268 2265.9900 2267.2407 2268.5017 2269.4551 2270.0898 2271.0974 2272.2647 2273.2027 2274.5607 2275.5749 2276.2204 2277.2281 2278.3114 2279.1877 2280.1504 2281.6460 2282.5366 2283.2984 2284.3034 2285.2571 2286.5977 2287.3844 2288.5322 2289.3789 2290.7088 2291.3058 2292.7017 2293.6219 2294.3475 2295.5082 2296.5854
2345.9524 2344.5246 2343.5430 2342.5494 2341.7978 2340.8228 2339.6885 2338.4308 2337.8507 2336.3656 2335.3766 2334.7477 2333.4042 2332.6819 2331.7209 2330.4480 2329.6539 2328.4346 2327.5535 2326.3717 2325.2668 2324.3470 2323.6110 2322.6184 2321.2558 2320.3869 2319.3125 2318.3677 2317.2969 2316.5025 2315.4184 2314.1834 2313.4213 2312.1493 2311.1420 2309.9390 2309.0026 2308.1419 2307.2574 2305.9024 2305.1560 2304.1128 2302.8918 2301.9977 2301.1961 2300.0799 2298.9258 2298.0778 2297.0176 2295.8643 2295.0485 2294.0571 2292.7298 2291.9216 2290.8654 2289.6616 2288.7054 2287.8705 2287.0261 2286.0201 2284.6588 2283.8882 2282.6463 2281.9729 2280.7079 2279.5731 2278.4369 2277.7872 2276.7108 2275.7323 2274.4499 2273.8200 2272.6479 2271.6199 2270.6663 2269.5410 2268.3183 2267.6800 2266.6748 2265.4337 2264.2307 2263.6612 2262.4385 2261.5395 2260.3311 2259.5866 2258.2975 2257.1103 2256.2200 2255.4003 2254.4638 2253.0180 2252.4512 2251.2127 2250.1131 2249.2466 2248.0556 2247.1219 2246.1416 2244.9559 2244.3605 2243.1138 2242.1884 2241.1636 2240.1079 2239.0674 2238.1217 2236.8116 2236.0329 2234.9473 2234.0306 2233.1187 2232.0561 2231.1107 2230.0467 2229.0860 2227.7503 2226.8962 2226.0435 2224.6962 2223.6557 2222.8536 2221.5955 2220.5356 2219.8417 2218.8272 2217.4733 2216.6116 2215.8932 2214.3977 2213.8415 2212.4919 2211.5634 2210.7805 2209.5757 2208.4164 2207.3860 2206.3717 2205.4288 2204.5639 2203.2464 2202.3649 2201.3860 2200.4195 2199.2664 2198.6195 2197.1331 2196.4886 2195.5691 2194.1742 2193.0837 2192.2278 2191.1806 2190.0316 2189.3523 2188.3616 2187.0773 2186.2314 2185.3096 2184.1583 2183.1675 2182.1301 2180.9531 2180.1309 2179.0950 2177.8304 2177.1990 2176.0788 2174.8026 2174.0271 2172.9705 2172.1658 2171.1484 2170.0887 2169.7540 2171.1273 2171.9453 2173.1947 2174.1799 2174.9506 2175.8126 2177.1517 2178.2279 2179.0187 2180.1275 2181.2318 2182.3510 2182.9313 2184.2552 2185.1889 2186.1897 2187.2877 2187.9824 2189.4764 2190.0879 2191.1669 2192.2104 2193.2595 2194.3766 2195.1001 2196.4243 2197.2890 2198.3168 2199.1916 2200.5967 2201.2760 2202.3408 2203.7090 2204.3845 2205.5499 2206.6896 2207.5151 2208.6577 2209.5733 2210.3807 2211.6234 2212.3743 2213.6648 2214.4804 2215.8974 2216.4408 2217.5857 2218.8537 2219.9463 2220.8742 2221.7101 2222.8339 2224.0258 2224.6809 2225.8073 2227.0470 2227.9135 2228.9576 2229.8061 2231.1139 2231.8382 2232.9226 2234.0943 2234.8328 2235.7568 2237.0557 2237.9453 2238.8524 2240.0865 2241.1596 2241.9366 2243.1864 2244.0383 2245.0573 2246.1365 2246.9347 2248.1538 2249.2434 2250.0418 2250.9956 2252.0381 2253.4425 2254.3897 2255.0875 2256.2509 2257.2716 2258.2059 2259.3392 2260.3214 2261.4227 2262.5619 2263.3991 2264.6943 2265.2742 2266.4421 2267.5322 2268.4025 2269.7779 2270.5877 2271.3277 2272.3719 2273.5714 2274.8038 2275.8342 2276.4008 2277.7926 2278.5221 2279.6672 2280.5364 2281.5933 2282.8453 2283.7724 2284.9115 2285.6243 2286.6546 2288.0685 2288.9808 2289.7312 2290.6262 2291.6726 2292.6746 2293.9662 2294.7607
2344.5564 2343.2777 2342.1623 2341.2576 2340.1852 2339.2239 2338.0868 2337.0977 2336.1561 2335.4203 2334.1167 2333.2175 2332.3567 2331.0194 2330.2511 2328.9582 2327.9801 2326.8581 2325.8615 2324.7483 2323.7596 2323.0933 2321.8591 2320.8495 2320.0935 2318.7406 2318.0536 2316.6327 2315.8438 2314.6235 2313.6812 2312.6644 2311.5224 2310.5949 2309.7231 2308.4132 2307.4241 2306.5604 2305.3236 2304.7457 2303.7570 2302.5874 2301.7005 2300.3001 2299.4870 2298.4398 2297.4081 2296.1416 2295.1139 2294.2715 2293.1460 2292.3587 2291.3969 2290.1925 2289.0571 2288.3928 2287.3372 2286.2893 2285.2858 2284.2784 2282.8645 2282.2909 2281.1960 2280.0724 2278.9398 2278.1050 2277.0629 2275.7300 2275.0805 2274.1079 2272.9525 2271.6228 2270.6807 2269.7658 2268.7700 2267.5696 2266.4959 2265.4818 2264.5838 2263.5442 2262.7047 2261.5008 2260.6493 2259.5532 2258.3350 2257.6495 2256.3623 2255.7584 2254.6941 2253.2518 2252.4882 2251.6133 2250.3511 2249.4167 2248.3116 2247.5676 2246.2307 2245.4338 2244.4435 2243.1282 2242.1134 2241.4247 2240.3982 2239.2595 2238.3452 2237.2237 2235.8611 2235.0227 2233.8359 2233.2161 2231.8070 2230.8043 2229.9615 2228.8767 2227.8496 2226.8175 2225.7041 2224.7711 2224.0270 2222.6568 2221.8365 2220.7171 2220.0063 2218.9224 2217.5468 2216.4553 2215.4364 2214.6463 2213.4844 2212.8468 2211.5494 2210.6317 2209.5231 2208.6424 2207.2957 2206.5921 2205.2904 2204.3715 2203.2424 2202.2559 2201.6173 2200.2240 2199.4334 2198.5337 2197.4465 2196.4550 2195.4746 2194.1122 2193.3098 2192.4177 2191.2390 2190.0390 2189.1573 2188.3273 2186.8309 2186.1283 2184.9835 2183.8658 2183.0579 2181.8272 2181.0231 2179.8363 2178.8179 2177.6405 2176.8490 2175.6509 2174.6564 2173.8035 2172.5350 2171.5524 2170.6989 2169.7321 2168.4544 2167.8051 2167.7707 2168.6231 2169.6534 2170.9763 2171.7292 2172.5706 2173.7093 2174.7551 2175.8852 2176.8584 2177.9796 2178.8732 2179.7556 2180.6982 2181.7645 2182.8684 2184.1788 2184.8699 2186.1775 2187.1886 2188.1576 2189.0904 2190.0757 2191.1913 2192.0648 2193.0065 2194.1813 2195.0681 2196.4497 2197.0550 2198.2285 2199.5774 2200.3070 2201.1533 2202.3928 2203.2874 2204.2625 2205.3521 2206.6738 2207.3329 2208.7113 2209.3424 2210.6131 2211.4585 2212.8189 2213.5728 2214.4828 2215.4984 2216.8303 2217.4949 2218.5336 2219.5203 2220.8471 2221.6874 2222.6885 2223.7089 2224.8300 2226.0035 2226.9233 2227.7523 2229.0622 2229.9352 2231.1817 2231.8868 2233.2570 2233.8642 2235.3223 2236.2003 2237.2121 2238.0464 2238.9180 2240.0993 2241.1137 2242.4545 2243.1259 2244.0942 2245.2017 2246.1671 2247.1603 2248.3510 2249.2127 2250.6449 2251.6330 2252.2742 2253.4439 2254.3309 2255.6661 2256.7666 2257.5538 2258.3426 2259.3701 2260.7137 2261.6885 2262.6468 2263.6484 2264.6798 2265.9535 2266.6464 2267.7536 2268.7826 2269.5742 2271.0146 2271.8273 2272.7258 2273.7692 2274.7435 2275.9318 2276.7945 2278.1065 2279.0935 2280.2371 2280.9425 2281.9129 2283.2777 2284.1311 2285.2982 2286.1959 2286.9251 2288.2797 2289.2290 2290.2902 2291.4023 2292.3475 2293.2851
2342.7567 2341.9789 2341.0959 2339.8438 2339.0598 2337.8130 2336.9388 2335.6922 2334.7542 2333.9412 2332.7969 2331.4903 2330.7371 2329.4166 2328.8389 2327.5858 2326.7876 2325.5128 2324.7267 2323.6127 2322.5985 2321.6112 2320.5873 2319.5948 2318.4123 2317.2744 2316.5405 2315.0780 2314.4940 2313.1025 2312.2932 2311.1560 2310.3405 2309.1207 2307.8513 2306.9479 2306.1674 2305.0059 2303.9463 2302.8263 2302.0933 2300.7718 2299.9300 2298.7007 2298.0589 2296.5773 2295.9697 2294.9096 2293.8750 2292.7785 2291.8704 2290.8271 2289.5782 2288.6586 2287.4578 2286.3458 2285.5559 2284.5348 2283.3936 2282.3228 2281.5692 2280.1593 2279.2215 2278.0943 2277.2602 2276.1734 2275.2290 2274.4301 2273.1920 2271.9446 2271.1217 2270.2861 2268.8477 2268.2958 2266.8616 2266.1701 2264.8773 2263.7917 2262.7073 2262.0097 2260.7863 2259.8461 2258.7084 2258.0098 2256.9482 2255.8835 2254.7222 2253.4410 2252.8355 2251.6671 2250.7549 2249.8126 2248.5794 2247.4161 2246.4492 2245.2942 2244.3493 2243.6228 2242.6066 2241.3337 2240.3327 2239.4728 2238.2678 2237.4957 2236.3479 2235.1216 2234.3355 2233.1780 2231.9063 2231.2374 2229.8399 2228.9219 2228.1407 2227.0890 2226.0338 2224.6972 2223.9602 2222.8607 2222.0479 2220.9756 2220.0441 2218.6153 2217.6326 2216.9002 2215.6471 2214.4492 2213.5556 2212.6695 2211.8518 2210.4564 2209.6954 2208.6579 2207.4232 2206.3096 2205.4920 2204.2387 2203.3376 2202.1797 2201.3134 2200.1513 2199.4585 2198.2883 2197.2754 2195.9657 2195.2239 2193.9491 2192.8879 2192.2060 2191.1665 2190.2628 2189.0988 2188.1883 2187.0722 2185.7452 2184.8585 2184.0412 2182.8876 2181.6592 2181.0226 2180.0032 2178.7078 2177.6913 2176.6777 2175.4991 2174.7846 2173.6327 2172.6819 2171.7344 2170.4142 2169.6262 2168.5610 2167.6831 2166.4525 2165.5759 2165.2485 2166.3022 2167.6102 2168.2659 2169.5915 2170.6804 2171.4624 2172.7844 2173.7594 2174.7224 2175.9204 2176.7270 2177.5913 2178.9634 2179.8655 2180.9749 2181.9821 2183.0208 2183.6773 2185.1168 2185.7401 2187.2026 2187.8207 2189.0942 2190.0138 2191.0789 2191.8832 2193.1993 2194.3769 2194.9680 2196.0922 2197.0105 2198.3823 2199.4296 2200.1125 2201.3521 2202.4529 2203.5484 2204.3109 2205.5395 2206.5435 2207.7269 2208.5579 2209.7106 2210.7977 2211.6959 2212.5137 2213.8993 2214.8725 2215.5373 2216.7433 2217.9404 2218.8499 2219.8841 2220.9677 2221.9945 2222.9990 2223.8494 2224.9153 2225.9539 2227.0104 2227.8586 2229.1012 2230.0078 2231.3228 2232.0291 2232.9465 2234.1685 2235.1082 2236.2445 2237.5089 2238.1496 2239.4390 2240.5050 2241.3636 2242.1985 2243.2514 2244.5710 2245.3793 2246.3923 2247.7187 2248.3110 2249.7542 2250.6302 2251.6593 2252.6150 2253.7635 2254.8663 2255.6221 2256.9123 2257.7165 2258.7301 2259.9549 2260.9205 2261.7583 2262.9339 2263.8449 2264.8246 2265.9543 2266.9906 2268.0942 2269.1166 2270.0484 2271.2953 2271.9974 2273.3624 2274.0022 2275.0391 2276.4154 2277.3605 2278.4777 2279.2748 2280.2448 2281.2048 2282.3547 2283.7025 2284.5917 2285.3179 2286.4015 2287.6639 2288.5006 2289.4021 2290.5864 2291.5788
2341.6376 2340.7366 2339.3563 2338.6812 2337.2781 2336.5156 2335.3691 2334.4754 2333.5681 2332.2131 2331.3456 2330.0864 2329.2587 2328.3413 2326.9959 2325.9863 2325.3164 2323.9530 2322.9091 2322.0082 2320.7283 2320.0114 2319.0655 2317.6405 2316.7354 2316.0075 2314.7345 2313.6782 2312.5472 2311.7081 2310.6118 2309.7845 2308.4757 2307.7265 2306.5573 2305.6254 2304.2569 2303.5526 2302.5974 2301.4004 2300.3343 2299.5522 2298.2730 2297.2902 2296.1609 2295.3825 2294.2728 2293.2626 2291.8694 2290.9376 2289.8560 2289.0120 2288.1649 2286.8658 2285.6660 2284.9866 2283.9370 2282.5656 2281.7343 2280.9135 2279.6010 2278.6523 2277.7180 2276.4465 2275.6167 2274.6178 2273.7460 2272.2595 2271.3489 2270.4335 2269.1989 2268.3935 2267.4591 2266.2585 2265.0367 2264.1376 2263.1183 2262.0502 2261.3115 2260.3504 2259.3200 2257.9741 2256.9694 2255.9599 2254.7178 2253.7866 2252.9965 2251.7922 2250.9213 2249.5845 2248.6387 2247.6122 2246.7157 2245.8346 2244.4289 2243.5375 2242.5658 2241.3942 2240.5588 2239.3222 2238.3535 2237.2080 2236.2260 2235.4470 2234.5112 2233.1569 2232.4118 2231.2854 2230.4133 2229.1936 2228.2444 2226.9184 2226.1663 2224.9271 2224.0785 2222.9451 2222.0634 2220.7497 2220.1155 2218.7897 2217.5977 2216.5890 2215.5550 2214.6777 2213.9491 2212.8902 2211.5348 2210.5955 2209.7192 2208.6293 2207.6243 2206.4175 2205.3733 2204.6335 2203.2696 2202.3385 2201.1675 2200.3689 2199.4035 2198.3984 2197.1421 2196.0419 2195.3157 2193.8984 2193.1986 2191.8785 2190.7890 2190.0902 2189.1774 2187.7738 2186.8163 2185.8745 2184.8208 2183.6838 2182.8567 2181.6196 2180.8763 2179.7425 2178.4908 2177.7200 2176.4347 2175.4402 2174.4971 2173.3025 2172.3268 2171.4216 2170.2053 2169.2319 2168.3542 2167.0972 2166.2363 2165.1747 2164.1793 2162.9164 2163.1545 2164.0369 2164.9738 2166.1057 2167.2214 2168.2533 2169.3992 2170.1441 2171.3395 2172.4059 2173.5140 2174.6634 2175.7115 2176.6430 2177.6367 2178.4603 2179.6421 2180.6767 2181.6190 2182.5158 2183.8736 2185.0361 2186.0742 2187.0880 2188.1372 2188.8017 2190.0199 2191.0642 2191.8850 2193.2792 2194.2988 2195.0185 2196.3031 2197.4328 2198.0932 2199.2058 2200.3751 2201.1930 2202.4699 2203.6251 2204.5644 2205.4125 2206.6239 2207.6120 2208.7902 2209.8067 2210.7361 2211.4196 2212.5095 2213.4979 2214.9019 2215.5741 2217.0231 2217.8149 2218.7939 2219.8728 2220.7493 2221.8358 2222.7669 2224.1914 2224.8072 2225.8391 2226.9193 2227.8911 2228.9819 2230.3623 2231.1496 2232.5099 2233.0956 2234.1760 2235.4153 2236.3426 2237.4416 2238.6097 2239.6248 2240.6601 2241.5164 2242.7690 2243.4905 2244.7627 2245.8245 2246.8691 2247.8713 2248.9653 2249.5526 2250.9162 2251.9376 2252.7445 2253.8779 2254.9905 2256.1015 2257.0573 2258.0954 2259.2611 2260.3425 2261.3275 2262.3975 2263.2434 2263.9950 2265.2807 2266.2309 2267.5247 2268.1703 2269.3804 2270.4507 2271.3963 2272.5636 2273.5057 2274.7875 2275.7301 2276.4145 2277.5015 2278.4875 2279.9212 2280.9038 2281.7011 2282.6856 2283.7174 2284.7529 2285.6806 2287.0130 2288.0597 2288.9009 2290.0666
2340.2768 2338.9376 2338.0732 2337.0197 2335.8595 2335.2109 2333.8442 2332.7455 2331.7201 2330.6783 2329.8367 2328.8292 2327.9895 2326.8573 2325.8872 2324.4252 2323.6953 2322.5419 2321.3866 2320.7024 2319.5187 2318.6023 2317.4346 2316.2904 2315.4990 2314.0787 2313.4610 2312.4539 2311.0513 2310.0500 2309.2823 2308.2944 2307.0376 2306.1380 2304.7684 2303.9304 2302.8397 2301.9141 2301.0715 2299.8428 2298.7526 2297.5540 2296.6656 2295.7908 2294.3858 2293.5103 2292.6213 2291.3369 2290.4704 2289.4084 2288.1756 2287.5069 2286.0883 2285.3865 2284.4276 2283.1706 2282.3226 2281.2823 2280.1942 2278.9937 2277.9953 2276.9591 2275.8686 2274.9779 2273.9934 2272.7487 2272.0358 2270.9333 2269.5982 2268.5516 2267.6111 2266.6626 2265.6273 2264.7453 2263.4752 2262.7113 2261.2473 2260.4547 2259.6034 2258.5096 2257.2327 2256.1478 2255.1501 2254.2640 2253.3396 2252.2293 2251.0862 2249.8956 2249.1664 2247.8342 2246.9255 2245.8284 2245.0770 2243.9000 2242.7065 2241.7421 2240.4995 2239.4411 2238.8283 2237.3726 2236.6542 2235.2972 2234.5803 2233.4211 2232.2161 2231.3234 2230.2689 2229.4999 2228.3250 2227.2336 2226.3053 2225.0011 2223.9461 2223.3290 2222.1684 2221.0299 2220.2067 2219.0108 2218.1423 2216.7082 2215.6499 2214.6108 2213.6836 2212.7444 2211.7123 2210.5608 2209.7977 2208.5191 2207.4593 2206.5834 2205.7191 2204.5379 2203.4412 2202.3253 2201.0954 2200.2229 2199.2794 2198.1162 2197.1063 2196.0389 2194.9517 2194.1411 2192.9182 2192.0257 2191.1008 2189.8366 2188.9224 2187.8729 2186.9055 2185.9432 2184.9024 2183.7639 2182.7860 2181.8252 2180.4608 2179.6248 2178.3193 2177.3821 2176.4695 2175.2066 2174.5498 2173.1192 2172.3412 2171.2475 2170.3519 2169.3304 2168.2327 2166.8734 2166.2529 2164.8589 2163.7787 2162.7982 2161.9951 2160.9699 2160.9759 2162.0027 2162.8554 2164.2563 2164.9742 2166.1849 2167.0269 2168.0941 2169.3643 2170.2503 2171.2866 2172.2640 2173.4498 2174.1477 2175.4512 2176.3831 2177.4949 2178.6729 2179.7910 2180.6339 2181.5464 2182.6598 2183.6958 2184.5747 2185.8579 2186.9179 2187.7918 2189.0274 2190.1177 2191.0238 2192.1625 2193.0944 2193.8558 2195.2500 2196.3763 2197.2078 2198.4111 2199.0129 2200.4976 2201.4434 2202.3426 2203.6309 2204.4629 2205.4222 2206.3209 2207.5957 2208.4651 2209.8196 2210.7127 2211.8084 2212.8933 2213.8057 2214.9616 2215.9487 2217.0691 2218.1500 2219.1740 2219.8012 2221.0514 2222.1734 2223.3180 2223.9565 2225.3812 2226.4257 2227.1083 2228.2698 2229.2567 2230.1885 2231.3475 2232.3704 2233.5903 2234.4956 2235.2816 2236.7144 2237.8504 2238.5778 2239.6388 2240.5320 2241.6525 2242.7055 2243.5754 2244.7875 2245.8005 2247.1722 2248.1928 2248.8260 2249.9475 2250.8606 2252.1794 2253.2809 2254.4089 2255.1141 2256.4764 2257.1157 2258.1795 2259.2898 2260.6213 2261.5517 2262.5327 2263.4820 2264.8006 2265.5896 2266.6982 2267.8299 2268.7382 2269.7903 2270.8718 2271.8918 2272.6897 2273.7918 2274.7570 2275.9073 2277.0036 2278.1959 2279.2862 2280.3292 2281.2423 2282.0519 2283.1181 2284.0088 2285.4269 2286.5315 2287.4079 2288.3312
2339.0008 2337.7309 2336.9157 2335.8594 2334.8654 2333.7470 2332.4440 2331.6274 2330.5769 2329.2193 2328.2090 2327.6120 2326.4648 2325.4886 2324.1004 2323.0211 2322.0295 2321.0092 2319.8430 2319.2234 2317.9647 2316.9285 2316.0576 2314.9545 2313.9853 2312.7269 2311.6102 2310.8951 2309.5777 2308.4457 2307.6312 2306.7245 2305.5920 2304.3223 2303.3736 2302.1406 2301.1212 2300.3934 2299.1078 2298.2481 2297.4109 2296.2347 2294.9480 2294.1360 2293.0509 2292.0346 2290.9635 2289.8872 2288.7332 2287.6364 2286.8624 2285.5792 2284.5723 2283.4864 2282.4609 2281.6423 2280.7244 2279.6103 2278.5419 2277.6010 2276.2491 2275.3220 2274.1480 2273.4253 2272.3128 2271.0389 2270.1160 2268.9652 2268.1652 2267.0527 2265.7161 2264.6762 2263.7884 2262.5935 2261.9367 2260.8373 2259.5409 2258.4628 2257.6851 2256.5976 2255.2948 2254.5775 2253.2782 2252.3709 2251.1784 2250.4335 2249.4485 2248.4618 2247.2953 2245.9218 2245.2784 2244.1118 2243.0820 2241.8413 2240.7540 2239.7629 2238.9493 2237.6465 2236.5739 2235.4998 2234.4788 2233.7199 2232.6240 2231.3443 2230.7396 2229.5318 2228.2014 2227.5702 2226.3592 2225.3709 2224.4752 2223.1529 2222.3155 2221.1455 2220.3024 2219.2067 2218.1114 2216.7819 2215.7413 2214.6609 2213.8426 2212.7197 2211.7451 2210.7139 2209.6627 2208.6940 2207.7440 2206.6130 2205.4972 2204.6806 2203.3366 2202.3161 2201.5846 2200.4928 2199.0806 2198.0388 2197.3342 2195.9127 2195.3008 2194.2609 2192.9725 2192.2004 2190.8406 2190.1157 2188.7966 2187.9126 2187.0054 2185.7720 2184.5253 2183.6371 2182.5969 2181.5480 2180.7112 2179.4636 2178.4267 2177.3174 2176.1193 2175.2758 2174.3731 2173.4079 2172.4289 2171.2699 2170.0885 2168.9006 2167.8024 2166.7605 2165.8986 2164.8631 2164.0722 2162.9093 2161.8736 2160.7274 2159.7746 2158.8278 2158.7926 2159.8383 2160.5231 2161.9746 2162.9849 2163.7626 2165.0435 2166.1146 2167.0264 2167.8677 2168.9300 2170.2928 2171.1994 2171.9526 2172.9873 2174.3841 2175.3532 2176.4359 2177.1944 2178.3877 2179.3116 2180.6440 2181.5385 2182.5937 2183.7429 2184.5654 2185.9502 2186.6803 2187.6878 2189.0401 2190.1012 2190.7888 2191.9882 2192.9759 2194.0951 2195.2472 2196.0123 2197.2716 2198.4555 2199.3874 2200.0775 2201.3946 2202.3718 2203.3545 2204.3744 2205.4492 2206.3420 2207.8429 2208.8344 2209.4752 2210.6244 2212.0007 2212.6695 2213.7954 2214.9833 2216.1666 2217.1445 2217.9922 2219.1003 2220.2706 2221.1243 2222.1185 2223.4463 2224.4686 2225.0877 2226.2824 2227.6096 2228.3639 2229.3902 2230.3976 2231.6147 2232.6820 2233.8770 2234.6543 2235.7948 2236.9288 2237.9482 2238.7462 2239.9351 2241.1376 2242.1231 2242.9746 2244.2061 2245.3296 2246.0890 2247.1620 2248.0598 2249.0446 2250.3662 2251.4905 2252.5958 2253.3424 2254.5829 2255.2607 2256.6945 2257.4926 2258.4099 2259.4564 2260.8601 2261.9042 2262.7232 2263.8301 2264.7106 2266.0956 2267.1470 2268.0110 2269.0417 2270.1151 2271.2460 2272.2102 2273.3441 2274.1606 2275.1066 2276.3311 2277.2897 2278.5147 2279.3962 2280.5626 2281.3738 2282.5996 2283.4140 2284.8759 2285.6092 2286.9507
2337.4927 2336.5806 2335.4731 2334.5064 2333.3483 2332.4655 2330.9219 2330.0399 2328.9091 2328.1400 2326.7667 2325.6958 2324.9540 2323.7617 2323.0314 2321.7112 2320.9238 2319.8902 2318.6469 2317.3885 2316.7034 2315.7166 2314.2429 2313.3819 2312.3929 2311.1257 2309.9997 2309.0573 2307.9544 2306.9574 2306.0160 2304.9895 2304.0570 2303.0806 2301.6341 2300.7080 2299.9543 2298.8083 2297.7355 2296.6538 2295.6204 2294.3596 2293.5122 2292.3232 2291.4379 2290.5636 2289.2364 2288.2730 2287.2262 2286.1174 2285.3666 2284.2651 2283.1477 2281.9483 2280.9125 2280.0185 2278.9744 2277.6468 2276.9324 2275.5128 2274.7715 2273.7457 2272.6320 2271.3678 2270.3559 2269.3906 2268.2307 2267.2659 2266.3050 2265.1107 2264.2558 2263.0514 2262.0693 2261.0749 2260.0560 2259.0141 2257.8329 2256.7434 2255.9994 2254.8050 2253.8653 2252.8632 2251.4514 2250.4115 2249.4021 2248.6151 2247.2887 2246.4168 2245.1437 2244.4992 2243.1941 2242.1526 2241.1674 2239.9555 2239.2459 2237.8824 2236.9989 2235.8314 2234.9540 2233.8017 2232.9555 2231.5452 2230.7607 2229.5395 2228.6113 2227.7603 2226.5154 2225.3466 2224.2432 2223.2259 2222.4729 2221.2322 2220.0249 2219.3637 2218.1673 2216.8537 2216.2684 2215.1302 2213.7755 2212.7468 2211.7941 2210.6923 2209.6248 2208.9502 2207.8839 2206.6726 2205.3329 2204.3546 2203.7303 2202.6443 2201.3372 2200.2256 2199.0630 2198.1999 2197.2793 2196.2407 2195.2788 2194.0501 2193.0122 2192.1454 2190.9019 2189.9591 2189.0452 2187.8642 2186.6320 2185.8194 2184.5921 2183.4457 2182.7095 2181.3232 2180.6399 2179.5257 2178.2986 2177.1771 2176.0986 2175.1664 2174.3716 2173.0850 2172.1687 2171.1839 2169.7583 2169.1137 2167.7325 2166.7095 2165.8374 2164.7055 2163.8999 2162.5701 2161.8652 2160.6663 2159.3066 2158.5767 2157.5094 2156.1776 2156.1446 2157.6425 2158.6729 2159.5882 2160.3918 2161.7163 2162.8688 2163.9580 2164.7985 2165.6102 2166.7286 2167.8920 2168.9372 2170.0760 2171.0551 2172.3185 2173.2362 2174.2901 2175.0757 2176.0437 2177.1470 2178.2937 2179.6471 2180.5351 2181.3066 2182.7533 2183.6355 2184.8395 2185.4765 2186.8559 2187.8805 2188.7160 2189.7285 2191.1583 2191.8463 2193.1509 2194.0438 2195.2921 2196.1389 2197.0307 2198.2502 2199.4948 2200.1572 2201.5250 2202.6372 2203.2482 2204.4373 2205.3992 2206.4158 2207.8210 2208.9402 2209.7252 2210.7270 2211.8129 2213.1374 2214.1497 2214.7780 2215.9325 2216.8540 2218.2707 2219.4106 2220.0765 2221.1276 2222.2020 2223.2955 2224.5177 2225.3853 2226.3330 2227.6191 2228.7605 2229.5075 2230.6573 2231.4962 2232.9189 2233.7463 2234.6876 2236.1245 2236.9423 2238.1225 2239.0042 2240.2495 2241.4026 2242.3509 2243.1219 2244.1037 2245.3474 2246.2150 2247.6455 2248.5194 2249.3575 2250.7709 2251.7148 2252.5627 2253.8045 2254.7733 2255.9736 2256.9261 2257.9342 2258.8259 2259.8069 2260.9405 2262.2294 2263.0982 2264.1764 2265.3649 2266.5222 2267.4548 2268.5052 2269.5420 2270.2933 2271.3573 2272.6819 2273.5871 2274.8888 2275.6448 2276.5517 2278.0265 2278.8544 2279.8920 2281.0054 2282.0442 2282.7983 2284.1768 2285.3443
2336.0103 2334.7779 2334.1081 2332.9696 2331.8066 2330.6217 2329.6610 2328.6362 2327.7372 2326.3684 2325.7363 2324.2711 2323.6553 2322.6176 2321.3271 2320.4413 2319.2069 2318.2796 2317.1153 2316.2711 2315.1387 2314.1546 2312.7723 2311.9671 2311.0023 2309.8711 2308.9358 2307.5957 2306.4405 2305.5622 2304.3037 2303.6386 2302.6565 2301.5130 2300.3874 2299.4390 2298.4444 2297.2243 2296.1627 2295.0888 2294.0237 2292.7638 2291.7933 2291.0061 2289.7418 2288.7798 2287.8145 2286.7588 2285.4168 2284.4407 2283.4102 2282.2319 2281.2450 2280.4719 2279.1121 2278.1181 2277.4100 2275.8881 2275.0257 2274.0510 2272.7388 2271.7666 2270.8816 2269.5901 2268.8171 2267.8906 2266.7542 2265.3766 2264.6514 2263.7283 2262.5902 2261.3976 2260.5860 2259.5297 2258.0815 2257.3979 2255.9936 2254.9433 2254.1747 2253.0994 2251.7504 2250.7933 2249.8485 2248.5658 2247.7900 2246.5670 2245.6878 2244.7931 2243.3128 2242.5497 2241.5955 2240.3285 2239.5659 2238.0909 2237.0654 2236.1747 2235.2903 2234.2542 2232.7864 2232.0941 2230.9663 2229.8115 2228.6752 2227.6796 2226.8641 2225.5211 2224.7561 2223.4045 2222.3011 2221.5917 2220.4341 2219.1366 2218.0916 2217.3382 2216.3082 2214.9332 2213.8819 2212.8761 2211.7386 2210.6835 2209.9842 2208.6181 2207.8758 2206.5873 2205.5536 2204.3877 2203.5655 2202.3005 2201.2695 2200.6562 2199.3218 2198.3418 2197.3540 2196.2779 2195.2340 2193.9585 2193.2654 2192.1092 2191.0571 2189.7168 2188.6686 2187.7973 2186.6585 2185.5914 2184.7283 2183.3871 2182.5207 2181.6743 2180.5368 2179.3768 2178.1393 2177.0901 2176.0692 2175.2294 2173.9638 2173.0923 2171.8479 2171.0650 2169.8481 2169.0996 2167.7830 2166.9523 2165.7927 2164.6208 2163.6798 2162.7342 2161.4282 2160.5269 2159.1455 2158.3170 2157.4362 2156.1134 2155.1202 2154.1702 2154.0491 2155.3226 2156.3082 2157.3009 2158.2695 2159.3326 2160.5922 2161.5274 2162.7949 2163.4531 2164.4868 2165.7668 2166.8118 2167.8847 2168.8502 2170.0519 2171.1550 2172.1659 2173.1650 2174.0303 2175.1896 2176.3193 2177.1813 2178.1676 2179.1631 2180.5623 2181.3731 2182.4930 2183.5146 2184.4075 2185.4345 2186.6915 2187.9381 2188.5937 2189.9609 2190.7310 2192.1462 2193.1908 2194.2076 2195.3341 2196.2647 2197.3850 2198.4363 2199.3330 2200.2071 2201.4419 2202.5762 2203.7263 2204.6320 2205.4497 2206.8668 2207.6853 2208.6688 2209.9049 2210.6971 2211.7315 2212.9904 2214.0217 2215.1122 2216.0613 2217.4509 2218.1005 2219.3010 2220.3003 2221.3435 2222.2610 2223.5444 2224.6753 2225.8011 2226.7286 2227.8940 2228.9660 2229.8463 2230.9870 2231.9186 2232.9759 2234.1848 2234.9131 2236.0714 2237.3103 2238.2213 2239.3613 2240.2527 2241.3587 2242.6014 2243.4748 2244.4591 2245.6419 2246.9078 2247.6445 2248.6424 2249.9760 2250.9620 2251.8646 2252.8668 2253.9813 2254.8713 2256.0740 2257.0224 2258.0451 2259.4208 2260.2289 2261.1646 2262.6230 2263.5487 2264.3161 2265.7919 2266.8479 2267.5761 2268.6331 2269.7775 2270.9298 2272.1263 2272.9673 2273.8446 2274.8708 2276.0725 2277.2560 2278.2206 2279.3261 2280.2617 2281.2828 2282.6446 2283.3695
2334.6853 2333.4491 2332.6904 2331.3832 2330.4758 2329.4353 2328.4216 2327.4418 2326.2612 2325.3976 2324.2318 2323.2334 2322.1902 2321.0928 2320.0163 2318.5837 2317.6758 2316.8872 2315.5559 2314.7777 2313.3829 2312.4247 2311.5787 2310.2741 2309.2191 2308.1673 2307.3723 2306.0988 2305.2222 2303.9695 2303.1637 2301.7270 2300.8355 2299.7369 2298.6522 2297.9270 2296.6034 2295.8085 2294.7071 2293.5073 2292.4884 2291.4385 2290.5499 2289.2694 2287.9891 2286.9471 2285.8648 2284.8689 2283.7690 2282.8814 2281.8512 2280.6273 2279.5763 2278.5790 2277.4484 2276.5349 2275.6435 2274.3121 2273.5959 2272.2243 2271.0542 2270.0230 2269.3369 2267.9859 2266.8550 2266.2072 2264.9329 2263.9335 2262.8264 2261.8703 2260.9504 2259.8654 2258.4228 2257.6218 2256.6086 2255.5294 2254.2009 2253.2996 2252.3579 2250.9735 2250.0899 2249.3188 2247.9737 2247.0100 2245.8554 2244.6273 2243.9532 2242.6605 2241.5109 2240.5362 2239.4942 2238.3032 2237.6861 2236.5358 2235.2992 2234.1800 2233.0783 2232.0098 2231.3297 2230.1292 2229.1911 2227.9033 2227.1464 2225.8401 2224.6698 2223.6266 2222.8282 2221.4151 2220.3914 2219.6351 2218.2627 2217.6134 2216.2787 2215.1964 2214.1108 2213.2040 2211.9125 2211.0260 2209.8533 2209.0584 2207.8482 2206.9271 2205.5701 2204.6024 2203.5056 2202.4644 2201.4408 2200.6987 2199.2712 2198.2890 2197.0742 2196.1131 2195.2155 2193.9865 2192.8975 2192.0032 2190.8962 2189.9840 2188.7946 2187.8608 2186.9925 2185.5442 2184.7235 2183.7403 2182.3285 2181.2440 2180.2715 2179.3666 2178.1139 2177.3629 2175.9779 2175.2654 2174.2169 2173.1192 2171.9164 2170.7511 2169.9031 2168.6060 2167.6623 2166.8601 2165.5401 2164.7565 2163.3957 2162.5986 2161.1767 2160.5758 2159.4706 2158.0409 2157.0778 2156.1365 2154.8816 2153.8594 2153.1797 2151.7316 2152.0833 2152.7470 2154.1583 2155.2319 2156.3346 2156.9220 2158.4121 2159.4214 2160.5734 2161.2800 2162.6171 2163.3142 2164.5489 2165.4324 2166.6829 2167.9187 2168.6593 2169.9030 2171.0554 2171.7153 2173.1245 2173.8350 2174.9257 2176.0873 2177.3282 2178.4969 2179.3988 2180.6312 2181.3980 2182.6166 2183.4895 2184.8265 2185.8124 2186.5740 2187.7231 2188.7927 2190.0473 2191.0061 2192.0152 2192.8945 2194.3916 2195.0107 2196.1981 2197.4529 2198.3601 2199.4678 2200.4746 2201.4257 2202.7491 2203.6396 2204.4797 2205.7913 2207.0210 2208.0851 2209.0779 2209.9631 2211.0762 2211.8945 2213.1536 2214.3987 2215.4474 2216.5655 2217.2195 2218.6866 2219.6428 2220.7864 2221.5447 2222.6145 2223.8414 2224.9659 2225.9601 2226.8070 2227.9139 2228.9969 2230.1613 2231.0819 2232.0991 2233.2627 2234.5112 2235.1502 2236.1764 2237.3024 2238.5585 2239.3911 2240.4674 2241.6764 2242.8008 2243.8395 2244.8459 2246.1457 2247.0635 2248.2657 2249.2377 2250.1996 2251.4488 2252.2325 2253.2452 2254.5776 2255.5342 2256.5089 2257.5285 2258.6905 2259.7022 2260.8462 2261.6067 2263.0331 2264.0868 2264.8901 2265.8659 2267.2966 2268.2194 2269.0770 2270.1437 2271.2140 2272.5134 2273.6141 2274.2344 2275.7201 2276.6170 2277.3834 2278.5471 2279.8363 2280.8861 2281.7274
2333.5228 2332.4284 2331.0516 2329.9075 2328.9669 2328.0361 2326.8365 2325.6869 2324.6900 2323.5280 2322.9001 2321.5018 2320.7542 2319.4361 2318.3802 2317.3970 2316.0703 2315.2419 2314.1696 2313.1025 2311.8471 2311.1359 2309.8067 2309.0491 2307.7189 2306.9247 2305.5787 2304.7436 2303.4208 2302.3559 2301.6524 2300.3223 2299.5245 2298.1834 2297.3288 2296.2982 2294.8862 2294.0119 2293.1016 2292.1114 2290.9118 2289.7374 2288.8709 2287.5719 2286.4454 2285.3700 2284.3684 2283.5902 2282.4826 2281.1686 2279.9888 2279.1578 2278.3318 2277.1410 2276.1246 2274.8562 2274.0383 2273.0131 2271.5194 2270.8752 2269.6790 2268.7190 2267.2806 2266.2962 2265.1454 2264.2980 2263.4216 2261.9382 2260.8709 2260.2437 2258.7876 2257.9275 2257.0196 2255.9978 2254.6327 2253.8647 2252.7075 2251.5483 2250.6055 2249.5656 2248.5284 2247.3314 2246.4387 2245.1968 2244.0428 2243.2306 2241.8637 2241.0295 2239.8334 2238.9885 2237.7494 2236.9225 2235.5396 2234.6674 2233.2549 2232.6504 2231.3598 2230.1945 2229.4082 2228.3248 2227.0770 2225.9404 2224.8462 2224.1719 2222.7298 2221.6089 2220.6099 2219.5655 2218.6077 2217.7690 2216.6567 2215.5713 2214.1776 2213.5098 2212.0343 2211.2637 2210.2203 2209.0702 2208.2358 2206.9194 2205.9496 2204.8453 2203.8715 2202.7130 2201.8170 2200.4037 2199.3720 2198.4778 2197.2113 2196.4296 2195.1293 2194.2942 2192.9087 2192.2028 2191.2320 2190.0328 2189.0213 2188.0288 2186.5765 2185.4721 2184.7545 2183.4060 2182.6310 2181.6858 2180.4438 2179.1037 2178.2721 2177.4765 2176.0633 2175.1402 2174.2800 2172.8249 2171.6775 2171.0002 2169.6104 2168.9444 2167.4837 2166.6955 2165.5678 2164.7262 2163.3914 2162.3990 2161.3933 2160.1028 2159.2384 2158.0942 2156.9126 2155.8065 2154.7479 2153.7793 2152.8777 2151.7055 2150.5030 2149.7687 2149.7746 2150.9266 2151.6556 2152.6425 2153.8686 2154.7412 2155.9564 2156.9410 2158.1743 2159.3410 2160.1806 2161.3782 2162.4971 2163.6442 2164.6734 2165.5190 2166.5423 2167.7799 2168.6149 2169.5936 2170.8055 2172.0898 2172.7968 2174.0096 2175.0444 2176.3350 2177.4355 2178.3842 2179.2368 2180.4543 2181.5132 2182.3937 2183.4227 2184.4922 2185.7238 2186.6062 2187.6679 2189.0213 2190.1923 2191.0916 2192.0919 2193.0269 2194.3366 2195.0590 2196.1405 2197.5070 2198.3395 2199.5527 2200.6301 2201.5334 2202.5861 2203.7596 2205.0782 2205.6473 2207.0842 2207.7760 2208.9881 2210.2732 2211.1658 2212.3538 2213.4686 2214.5380 2215.2160 2216.3700 2217.5370 2218.6504 2219.6248 2220.5447 2221.9535 2222.7408 2223.9263 2225.1828 2226.0948 2226.8788 2228.3667 2229.3696 2230.4627 2231.4113 2232.6257 2233.3205 2234.7422 2235.7322 2236.8943 2237.5100 2238.8080 2239.7826 2240.7663 2241.8511 2242.9105 2244.0957 2245.2711 2246.3412 2247.1073 2248.5655 2249.3393 2250.4119 2251.6402 2252.7284 2253.6428 2254.9038 2255.9764 2256.8919 2257.7954 2258.8434 2260.2434 2261.3347 2262.4022 2263.1528 2264.0989 2265.5334 2266.3053 2267.4575 2268.5756 2269.7528 2270.4354 2271.7618 2272.6612 2273.9230 2274.8078 2275.9610 2276.8782 2278.0532 2279.0297 2280.1551
2332.0918 2330.8378 2329.9605 2328.5514 2327.7931 2326.4966 2325.7159 2324.2287 2323.4692 2322.3229 2321.2076 2320.1089 2318.8960 2318.2620 2317.1801 2316.0920 2314.6947 2313.9354 2312.8665 2311.5616 2310.6744 2309.5532 2308.3620 2307.4810 2306.1371 2305.2651 2304.2461 2302.9472 2302.1945 2300.9984 2300.0773 2298.6534 2297.6165 2296.5412 2295.8838 2294.4348 2293.2991 2292.3918 2291.3861 2290.2610 2289.2950 2287.9939 2287.1755 2285.9021 2284.8765 2283.7079 2282.6994 2281.5478 2280.9197 2279.7813 2278.7992 2277.5160 2276.3619 2275.4411 2274.5564 2273.4545 2272.0026 2270.9867 2270.2851 2269.0107 2267.6658 2267.0366 2265.7428 2264.9422 2263.4516 2262.7920 2261.7117 2260.6328 2259.6068 2258.4662 2257.1292 2256.0470 2255.2729 2254.1753 2253.1039 2252.0129 2250.8232 2249.9967 2248.7184 2247.7733 2246.6699 2245.6426 2244.5699 2243.4507 2242.3875 2241.1740 2240.2239 2239.1015 2237.8513 2236.8555 2236.0248 2234.7313 2233.9302 2232.8650 2231.4274 2230.6130 2229.7051 2228.4682 2227.1681 2226.0824 2225.1016 2224.3433 2223.2840 2221.8635 2220.7250 2219.9715 2218.8787 2217.5449 2216.8064 2215.8106 2214.7175 2213.6279 2212.3642 2211.3029 2210.0648 2208.9913 2208.0210 2207.1980 2205.7963 2205.2222 2203.9520 2202.7297 2201.6680 2200.7602 2199.6150 2198.7497 2197.6485 2196.3015 2195.5813 2194.4979 2193.0252 2192.2021 2191.3315 2190.1237 2189.1939 2187.7997 2186.9828 2185.8182 2184.6167 2183.8411 2182.4619 2181.5936 2180.6414 2179.4137 2178.4412 2177.2787 2176.3246 2175.0613 2174.2394 2172.7908 2171.6797 2170.9624 2169.8135 2168.7554 2167.8457 2166.5750 2165.4010 2164.3100 2163.4160 2162.2316 2161.1012 2160.2200 2159.0442 2157.7963 2157.1136 2156.0584 2154.7589 2153.6557 2152.8345 2151.4434 2150.7004 2149.5397 2148.4588 2147.4793 2147.3027 2148.5572 2149.6629 2150.6037 2151.8079 2152.5926 2153.6184 2154.9786 2156.0870 2156.7422 2158.0441 2159.2864 2160.1745 2161.2593 2162.4079 2163.5798 2164.6586 2165.3072 2166.3876 2167.6382 2168.6318 2169.6540 2171.0287 2171.6622 2173.1190 2173.8003 2175.2842 2176.1437 2177.1730 2178.5016 2179.4130 2180.6193 2181.7411 2182.7013 2183.7299 2184.5908 2185.9087 2186.6744 2188.0614 2189.1220 2190.1418 2191.2789 2192.2438 2193.0918 2194.3829 2195.3961 2196.6121 2197.3364 2198.6261 2199.7983 2200.9308 2201.7090 2202.7907 2204.0999 2204.8595 2206.0972 2206.8721 2207.9894 2209.4394 2210.5504 2211.4270 2212.2806 2213.3811 2214.3556 2215.6483 2216.5028 2217.5990 2218.6775 2220.0389 2220.7542 2222.1416 2223.1168 2223.9874 2225.2834 2226.4933 2227.4040 2228.2528 2229.2891 2230.4746 2231.4611 2232.8428 2233.9404 2234.8297 2236.0536 2236.8278 2237.9761 2239.3106 2240.2925 2241.2387 2242.3464 2243.4574 2244.3659 2245.4699 2246.4961 2247.6147 2248.5239 2249.9206 2250.6626 2251.6835 2253.1794 2253.9341 2255.3060 2256.2199 2257.4063 2258.0620 2259.4999 2260.6073 2261.6308 2262.7551 2263.7081 2264.5706 2265.5966 2266.8687 2267.7611 2268.8286 2269.8939 2271.0997 2271.9487 2273.2710 2274.1709 2275.4110 2276.6372 2277.5972 2278.6263
2330.4388 2329.5160 2328.1684 2327.3609 2326.0299 2325.4206 2324.1251 2323.1261 2321.7094 2320.7442 2319.9772 2318.7858 2317.8806 2316.4350 2315.3928 2314.6967 2313.4511 2312.1678 2311.2787 2310.0625 2309.2792 2308.0358 2306.9423 2305.7102 2304.8901 2303.5705 2302.6979 2301.7989 2300.3581 2299.3876 2298.3017 2297.4542 2296.0393 2295.3894 2294.0615 2292.8140 2292.1906 2290.9277 2289.8723 2288.7798 2287.7697 2286.4149 2285.3844 2284.6123 2283.4544 2282.0898 2280.9835 2279.9844 2279.2704 2277.9697 2276.7650 2276.0452 2274.9717 2273.5679 2272.6085 2271.6671 2270.5895 2269.1977 2268.5761 2267.1393 2266.3615 2265.0849 2264.2802 2263.0011 2261.8568 2261.1135 2259.8442 2258.4758 2257.8692 2256.7255 2255.7433 2254.4089 2253.2394 2252.3420 2251.1425 2250.1806 2248.8981 2248.2160 2246.6968 2246.0583 2244.6785 2243.5931 2242.8371 2241.5783 2240.3808 2239.3949 2238.3147 2237.3454 2236.2385 2235.3829 2234.2724 2233.1448 2231.6804 2231.1020 2229.6706 2228.5771 2227.3899 2226.3272 2225.3168 2224.4545 2223.4656 2222.2782 2221.1250 2220.0813 2219.2700 2217.9113 2217.0258 2215.9540 2214.8613 2213.8216 2212.4632 2211.5017 2210.3343 2209.6672 2208.5798 2207.4192 2206.0411 2205.0570 2203.9981 2203.2114 2201.8484 2200.6733 2199.6250 2198.6512 2197.5859 2196.4578 2195.4395 2194.2594 2193.1392 2192.5151 2191.3814 2189.9170 2188.9927 2188.1386 2186.8676 2185.9454 2184.6786 2183.5075 2182.6642 2181.7134 2180.3220 2179.3087 2178.1812 2177.1212 2176.0310 2175.2978 2174.0263 2173.0327 2172.1400 2171.0809 2169.9218 2168.6323 2167.5191 2166.4705 2165.4241 2164.2251 2163.2276 2162.4414 2161.0055 2160.2538 2159.2082 2158.0591 2157.1310 2155.7035 2154.9576 2153.4724 2152.5011 2151.7253 2150.4046 2149.3282 2148.2242 2147.3348 2146.1748 2144.9818 2145.1513 2146.2324 2147.2302 2148.5365 2149.5319 2150.6873 2151.3986 2152.5246 2153.7699 2154.7340 2156.0021 2157.0040 2157.8357 2159.0637 2160.1083 2161.1860 2162.1353 2163.2441 2164.6049 2165.2292 2166.6925 2167.5901 2168.6412 2169.7162 2171.0243 2171.7539 2172.9041 2174.2590 2174.9029 2176.0392 2177.2944 2178.4577 2179.6360 2180.5007 2181.7210 2182.4775 2183.5382 2184.5505 2185.8775 2186.9152 2188.0642 2188.9743 2189.8842 2191.3448 2192.1987 2193.2469 2194.4544 2195.4137 2196.5701 2197.8313 2198.8013 2199.9746 2200.6656 2201.7492 2202.8728 2204.2717 2205.2999 2206.1229 2207.1681 2208.3905 2209.1770 2210.5818 2211.7406 2212.8067 2213.5867 2214.6978 2215.8130 2216.8891 2218.1306 2219.0152 2220.0645 2221.3997 2222.4864 2223.3450 2224.5884 2225.3426 2226.6758 2227.4925 2228.4619 2229.6209 2231.0606 2231.8182 2232.7905 2234.0737 2235.1114 2235.9844 2237.5185 2238.5757 2239.4205 2240.6012 2241.4754 2242.8046 2243.6152 2245.0201 2245.6119 2246.8587 2248.2514 2249.1348 2250.1981 2251.1932 2252.1729 2253.1144 2254.3679 2255.5054 2256.4647 2257.8215 2258.9104 2259.7467 2261.0502 2261.9903 2263.0999 2264.0405 2265.0819 2266.2123 2267.2532 2268.4527 2269.5596 2270.6009 2271.6075 2272.7220 2273.7164 2274.7509 2275.9773 2276.8494
2328.9611 2328.2095 2327.0524 2326.0575 2324.6683 2323.6317 2322.5921 2321.3935 2320.4610 2319.4144 2318.6255 2317.3388 2316.2571 2314.9777 2314.2608 2312.9835 2311.7692 2310.6510 2309.7430 2308.8380 2307.7786 2306.7212 2305.4880 2304.3233 2303.1639 2302.4286 2301.1979 2300.0961 2299.2219 2297.6731 2296.8974 2295.8283 2294.6711 2293.5018 2292.4851 2291.5023 2290.2931 2289.4645 2288.3896 2286.9844 2285.8655 2284.8962 2284.0444 2282.7361 2281.8077 2280.8167 2279.4942 2278.4191 2277.3879 2276.3705 2275.2805 2274.4640 2273.0817 2272.1397 2271.1764 2269.9149 2268.8741 2267.6695 2266.6998 2265.4119 2264.5338 2263.4533 2262.3997 2261.0948 2260.1967 2259.3199 2257.9000 2257.0952 2255.8188 2254.6496 2253.5237 2252.8351 2251.3990 2250.5769 2249.6447 2248.1923 2247.3230 2246.2852 2245.2784 2244.0265 2243.1081 2241.8109 2240.8682 2239.7489 2238.4727 2237.4462 2236.3004 2235.5807 2234.6150 2233.1135 2232.0374 2230.9289 2230.0421 2228.8696 2228.0266 2226.6044 2225.5287 2224.4897 2223.8090 2222.4415 2221.4459 2220.4653 2219.3819 2218.1100 2217.1454 2216.0419 2214.9959 2213.7728 2213.0250 2211.6861 2210.8756 2209.4694 2208.6238 2207.5713 2206.4620 2205.2828 2204.3398 2203.0812 2201.9906 2200.7989 2199.7981 2198.9774 2197.8905 2196.8282 2195.7407 2194.5779 2193.6917 2192.5184 2191.2211 2190.0088 2188.9918 2188.1675 2187.2026 2186.0714 2184.6453 2184.0030 2182.5852 2181.8053 2180.3680 2179.6568 2178.5708 2177.3784 2176.2473 2175.2723 2174.2091 2172.7850 2172.1446 2171.0920 2169.8479 2168.8415 2167.7716 2166.5275 2165.5621 2164.2667 2163.5045 2162.1951 2160.9489 2160.2861 2158.9066 2157.7273 2156.8384 2155.7401 2154.4883 2153.5686 2152.4436 2151.6049 2150.2344 2149.1543 2148.2912 2147.3852 2146.2601 2145.1178 2144.0254 2142.9921 2143.0392 2143.6979 2144.7843 2145.8764 2147.3135 2148.0820 2149.3673 2150.6056 2151.6316 2152.3870 2153.6718 2154.4747 2155.5773 2156.7307 2158.0756 2158.7794 2160.3353 2161.3033 2162.3629 2163.4163 2164.1770 2165.2221 2166.5447 2167.7372 2168.7329 2169.6493 2170.6941 2171.8171 2173.2287 2173.9255 2175.2326 2176.4676 2177.3677 2178.2228 2179.5207 2180.7069 2181.4455 2182.5430 2183.9482 2185.0020 2185.8920 2187.1920 2188.0767 2189.3154 2190.1779 2191.0947 2192.4276 2193.3289 2194.3458 2195.7039 2196.5166 2197.5322 2198.7200 2199.8117 2201.1925 2201.8907 2202.9233 2204.3439 2205.3175 2206.4371 2207.2479 2208.4388 2209.8537 2210.6311 2211.7568 2212.6938 2213.9405 2215.0821 2216.1374 2217.0547 2218.3820 2219.0877 2220.3279 2221.4883 2222.5521 2223.4780 2224.7922 2225.8838 2226.8091 2227.6972 2228.9794 2230.2051 2230.9654 2232.4173 2233.4928 2234.5399 2235.3735 2236.3970 2237.4897 2238.7059 2239.9767 2240.6585 2241.8968 2242.9838 2243.9746 2245.1647 2246.1545 2247.2557 2248.3596 2249.5356 2250.7144 2251.6879 2252.7622 2253.9729 2254.8107 2255.7178 2256.8751 2258.0748 2259.3867 2260.3953 2261.3230 2262.4185 2263.2351 2264.7484 2265.5770 2266.7167 2267.6397 2268.7289 2269.8854 2270.9127 2272.0512 2273.3282 2274.3697 2275.3883
2327.9867 2326.6882 2325.5661 2324.3809 2323.6551 2322.4039 2321.3546 2320.1209 2319.0014 2318.0254 2316.9586 2315.6886 2314.8347 2313.4931 2312.6554 2311.7807 2310.2663 2309.3177 2308.5097 2307.4451 2306.0086 2305.2144 2303.9834 2302.8308 2301.7861 2300.9100 2299.5113 2298.4538 2297.6365 2296.5357 2295.2715 2294.4608 2293.2518 2291.9572 2290.9707 2290.0012 2288.9054 2287.8653 2286.6833 2285.4160 2284.5345 2283.4650 2282.5346 2281.2945 2280.0760 2278.8952 2278.0037 2277.0685 2276.0528 2274.7644 2273.8678 2272.7346 2271.6633 2270.4526 2269.3218 2268.3810 2267.1608 2265.9449 2264.7874 2263.8387 2262.8077 2261.7159 2260.8531 2259.5629 2258.7421 2257.5214 2256.4004 2255.3873 2254.2010 2253.2796 2251.7933 2250.7504 2249.7571 2248.5525 2247.6881 2246.5204 2245.3710 2244.2625 2243.2185 2242.1274 2241.3958 2240.0654 2239.0804 2237.9579 2236.9561 2235.6826 2234.8775 2233.7257 2232.3875 2231.4139 2230.2763 2229.3220 2228.2070 2227.1749 2226.0329 2225.0343 2224.1230 2222.8010 2221.7651 2220.6848 2219.6779 2218.7201 2217.1840 2216.3907 2215.0546 2214.0690 2213.1789 2211.7971 2211.0898 2209.6049 2208.6170 2207.6770 2206.4707 2205.5022 2204.4376 2203.1190 2202.2278 2201.0432 2200.0469 2199.1164 2198.0832 2197.0086 2195.9339 2194.5007 2193.7996 2192.7764 2191.3146 2190.3449 2189.1308 2188.3253 2187.1320 2186.1976 2184.9845 2183.7250 2182.9592 2181.7755 2180.8738 2179.5870 2178.3525 2177.2248 2176.4115 2175.0467 2174.0944 2173.1186 2172.0936 2170.7924 2169.7390 2168.7990 2167.8265 2166.5271 2165.5625 2164.2478 2163.4186 2162.3237 2161.1573 2160.2941 2158.9708 2157.9612 2156.8992 2155.8312 2154.6716 2153.7731 2152.2658 2151.6053 2150.1433 2149.3525 2148.0543 2147.0398 2146.0043 2145.1403 2143.6497 2142.9755 2141.6666 2140.5707 2140.8419 2141.5388 2142.7057 2144.0532 2144.9147 2145.8446 2146.9184 2148.2404 2149.2727 2150.3536 2151.6677 2152.2528 2153.3521 2154.8345 2155.6760 2156.6556 2157.7208 2159.2389 2160.3030 2161.2503 2162.0562 2163.3551 2164.5614 2165.3567 2166.7284 2167.5687 2168.8710 2169.8745 2171.0153 2172.2034 2172.9932 2173.9153 2175.2029 2176.5363 2177.4216 2178.2714 2179.4483 2180.4012 2181.5377 2182.7220 2183.6904 2184.8772 2186.0366 2186.9044 2188.4156 2189.3487 2190.2035 2191.3802 2192.7119 2193.6169 2194.4918 2195.9280 2196.6762 2197.9543 2198.8847 2199.9438 2201.3357 2202.3847 2203.4191 2204.2931 2205.5147 2206.4011 2207.8959 2208.9925 2210.0291 2210.8553 2211.9798 2213.1697 2214.3139 2215.3868 2216.2454 2217.3029 2218.3265 2219.5303 2220.8858 2221.7817 2222.9057 2223.9860 2224.9807 2225.9891 2227.1766 2228.0843 2229.3586 2230.4677 2231.3353 2232.3888 2233.7753 2234.7064 2235.9641 2236.8414 2237.9606 2239.0701 2240.3023 2241.1799 2242.4342 2243.5011 2244.3173 2245.3779 2246.8108 2247.8311 2248.6851 2249.9586 2251.0401 2251.9831 2253.1225 2254.0997 2255.1543 2256.4089 2257.3410 2258.5486 2259.4070 2260.8036 2261.5380 2262.7365 2263.7492 2264.9226 2265.9680 2266.9616 2268.2735 2269.4707 2270.2751 2271.4547 2272.7323 2273.4747
2326.2891 2325.3960 2324.0651 2322.9582 2322.2530 2320.7932 2319.7109 2319.0130 2317.8031 2316.5891 2315.3571 2314.4299 2313.1752 2312.4436 2310.9870 2310.0271 2308.8376 2307.7799 2306.8863 2305.9181 2304.4627 2303.6864 2302.4210 2301.3921 2300.4809 2298.9725 2298.3613 2296.8527 2295.9348 2294.8552 2293.6719 2292.8613 2291.6745 2290.4629 2289.5965 2288.4276 2287.3954 2286.3077 2284.9094 2283.8934 2282.9115 2281.7681 2280.7378 2279.7529 2278.4160 2277.6462 2276.5999 2275.0696 2274.2720 2272.9771 2271.8968 2270.8837 2269.9349 2268.9611 2267.7838 2266.7843 2265.5368 2264.3804 2263.4587 2262.0646 2261.1021 2260.0199 2259.1277 2257.8051 2257.0133 2255.5290 2254.7339 2253.4419 2252.2607 2251.1996 2250.3792 2249.2591 2248.3531 2247.0772 2246.0278 2245.0428 2243.8000 2242.7993 2241.4886 2240.2664 2239.2004 2238.2611 2237.1757 2236.2416 2234.9095 2234.1237 2232.6568 2231.6731 2230.7028 2229.5898 2228.4065 2227.4252 2226.3616 2225.0726 2224.4066 2223.2478 2222.1773 2220.8376 2220.0244 2218.6457 2217.7006 2216.7676 2215.3414 2214.5759 2213.5643 2212.0328 2211.0067 2210.1678 2209.0247 2207.8866 2206.9884 2205.8014 2204.8442 2203.4182 2202.2224 2201.2118 2200.2071 2198.9777 2197.9181 2197.1212 2195.8460 2195.0768 2193.7556 2192.6770 2191.8160 2190.5502 2189.1815 2188.4740 2187.2760 2186.1287 2184.9407 2183.7767 2182.9950 2181.5911 2180.8532 2179.4501 2178.3538 2177.2397 2176.3849 2175.3047 2174.1459 2173.0304 2172.2430 2170.8150 2169.7816 2168.9978 2167.8838 2166.3854 2165.7310 2164.4333 2163.2908 2162.3955 2161.2863 2160.0811 2158.9659 2157.7454 2156.5757 2155.7069 2154.7943 2153.3264 2152.3079 2151.6224 2150.0994 2149.3418 2148.0597 2146.8537 2145.7220 2144.9651 2143.5682 2142.9297 2141.7916 2140.7609 2139.6160 2138.1257 2138.3290 2139.5658 2140.5332 2141.7437 2142.5920 2143.5398 2144.9794 2146.2029 2147.1931 2148.1919 2149.2697 2150.1701 2151.2193 2152.6164 2153.7427 2154.6219 2155.7797 2156.7776 2157.7627 2158.8685 2160.2049 2161.1430 2162.0113 2163.5120 2164.4348 2165.6794 2166.6035 2167.6939 2168.7515 2169.9293 2171.1668 2171.8795 2173.0860 2174.0051 2175.2241 2176.1764 2177.5692 2178.6944 2179.6173 2180.9782 2181.6749 2182.7409 2183.7901 2184.9549 2186.2535 2187.3139 2188.4940 2189.4798 2190.6949 2191.7613 2192.4601 2193.8044 2194.9180 2195.9798 2197.2761 2197.8947 2199.3403 2200.1349 2201.4536 2202.2300 2203.6065 2204.4277 2205.6841 2206.5921 2208.0985 2208.9427 2210.2381 2211.1931 2212.4196 2213.1952 2214.2903 2215.6198 2216.4393 2217.8526 2218.6645 2219.9710 2220.7928 2221.8734 2222.9181 2224.3098 2225.5463 2226.4409 2227.6281 2228.3592 2229.8062 2230.8395 2232.0373 2232.8471 2234.1596 2235.1552 2236.1727 2237.0175 2238.5316 2239.2934 2240.6657 2241.5257 2242.4998 2243.8892 2244.7702 2245.8230 2246.9940 2248.2982 2249.3290 2250.4049 2251.1690 2252.3813 2253.3463 2254.4901 2255.8782 2256.9627 2257.8083 2259.0660 2260.1391 2260.9174 2262.2983 2263.3205 2264.5856 2265.4355 2266.4912 2267.7098 2268.5480 2269.8908 2270.8984 2271.9611
2324.9409 2323.7720 2322.5916 2321.9614 2320.8243 2319.3004 2318.6438 2317.3804 2316.1180 2315.0390 2313.8564 2312.8145 2311.8869 2310.7481 2309.5215 2308.7987 2307.3426 2306.2189 2305.4963 2304.2674 2303.0973 2302.2751 2301.0236 2299.9409 2298.6734 2297.6349 2296.7504 2295.4503 2294.2601 2293.1359 2292.2528 2290.9719 2290.2243 2288.7918 2287.8190 2286.5305 2285.4728 2284.6539 2283.3670 2282.2595 2281.1278 2280.0527 2279.1880 2278.1147 2276.7438 2275.6291 2274.6725 2273.6043 2272.5162 2271.6983 2270.4407 2269.3065 2268.3017 2267.3436 2265.9979 2265.1811 2263.7926 2262.9354 2261.7483 2260.5275 2259.5669 2258.4045 2257.2769 2256.3210 2254.9767 2254.0067 2252.7458 2251.6247 2250.9157 2249.6962 2248.6738 2247.3601 2246.1901 2245.4555 2244.0653 2243.2833 2241.8163 2240.7821 2240.0648 2238.7850 2237.4589 2236.3624 2235.6439 2234.4310 2233.1072 2232.3662 2230.9235 2230.1675 2228.8668 2227.9093 2226.8045 2225.4155 2224.7099 2223.2280 2222.1690 2221.0240 2219.9762 2219.0261 2217.9931 2216.9627 2215.6229 2214.5536 2213.6514 2212.4361 2211.2276 2210.2184 2209.1483 2207.9274 2207.1265 2206.1004 2205.1053 2203.7636 2202.8394 2201.5093 2200.2993 2199.6238 2198.5641 2197.2150 2196.2043 2195.0746 2193.7162 2192.9432 2191.6991 2190.5684 2189.8257 2188.3759 2187.2714 2186.3768 2185.3015 2184.0676 2182.9256 2181.7327 2180.9134 2179.8410 2178.8660 2177.5386 2176.6878 2175.4392 2174.5181 2173.0364 2171.8843 2171.2312 2170.1757 2168.8870 2167.9975 2166.5663 2165.5275 2164.3984 2163.4009 2162.3302 2161.4071 2159.9780 2158.8694 2157.9550 2156.7001 2155.6488 2154.6922 2153.7284 2152.3026 2151.2127 2150.3558 2149.3654 2148.1095 2146.8338 2145.8398 2144.8443 2143.7820 2142.8266 2141.6493 2140.3863 2139.2331 2138.2511 2137.3997 2136.1970 2136.2866 2136.9365 2138.4353 2139.3228 2140.3938 2141.4030 2142.6135 2143.6189 2144.9795 2145.9891 2147.0905 2148.1119 2149.3100 2150.0782 2151.5167 2152.7189 2153.4214 2154.5212 2155.6027 2156.6744 2158.0739 2159.2654 2160.2497 2161.1191 2162.4678 2163.4672 2164.3605 2165.5664 2166.5270 2167.7644 2169.0819 2170.1579 2171.0559 2171.9489 2173.0488 2174.3458 2175.5892 2176.5093 2177.6732 2178.5346 2179.9534 2180.8605 2182.0056 2182.8182 2184.0958 2185.1901 2186.1736 2187.3486 2188.6126 2189.5247 2190.5186 2191.9118 2192.9852 2193.7254 2195.1185 2196.0249 2197.1852 2198.4094 2199.6594 2200.7260 2201.7884 2202.8382 2203.7151 2204.6974 2205.7511 2207.1347 2207.9425 2209.1119 2210.1834 2211.2291 2212.2816 2213.6899 2214.6037 2215.6241 2216.7891 2217.9345 2218.9026 2220.2926 2221.1316 2222.3815 2223.2387 2224.4228 2225.5872 2226.8858 2227.6838 2228.8930 2229.7966 2231.2804 2232.0243 2233.0396 2234.3141 2235.2969 2236.5508 2237.8757 2238.5032 2239.6508 2240.7209 2242.1532 2243.0540 2244.2202 2245.0593 2246.3904 2247.2309 2248.7544 2249.5814 2250.6244 2251.8146 2253.1311 2254.1179 2255.2816 2256.2308 2257.0907 2258.2499 2259.3424 2260.5470 2261.9010 2262.8738 2263.8113 2264.8498 2266.2077 2266.8938 2268.3202 2269.4721 2270.4945
2323.8197 2322.4683 2321.4566 2320.1445 2319.4589 2318.0000 2317.2384 2316.0815 2315.0270 2313.8461 2312.4219 2311.2958 2310.5438 2309.4410 2308.1079 2307.2694 2306.2733 2305.0814 2303.6665 2302.7356 2301.5249 2300.7931 2299.6245 2298.5584 2297.2216 2296.3553 2295.1911 2293.8717 2293.0777 2291.7480 2290.6110 2289.6299 2288.6538 2287.4548 2286.5235 2285.3374 2284.1999 2283.1701 2281.7741 2280.6999 2279.7680 2278.4467 2277.5858 2276.6123 2275.4666 2274.1629 2272.9903 2272.0177 2271.2036 2269.9936 2268.8050 2267.8367 2266.7528 2265.3839 2264.2320 2263.3536 2262.1295 2260.9730 2259.7421 2258.6444 2257.6488 2256.9211 2255.4540 2254.5350 2253.4639 2252.0622 2251.4524 2250.3318 2249.2582 2248.1298 2246.8507 2245.8092 2244.4652 2243.5352 2242.3621 2241.4463 2240.2225 2239.1339 2237.9000 2236.9630 2235.9006 2234.5399 2233.6601 2232.4257 2231.6132 2230.1565 2229.2753 2228.0690 2227.0858 2226.1566 2225.0719 2223.8980 2222.6041 2221.7952 2220.6035 2219.2616 2218.4350 2217.1926 2216.2408 2214.8492 2213.6968 2213.0210 2211.5259 2210.5147 2209.6358 2208.4963 2207.3154 2206.4526 2204.9438 2204.2717 2202.8415 2202.0592 2200.5415 2199.4230 2198.3769 2197.6085 2196.5192 2195.3395 2194.1220 2193.2213 2191.7846 2190.6828 2190.0140 2188.5491 2187.5513 2186.6450 2185.1643 2184.2559 2183.3938 2181.9074 2181.0176 2179.7471 2179.0216 2177.8312 2176.3724 2175.7127 2174.2216 2173.2075 2172.4758 2171.0884 2170.0834 2168.9745 2167.9463 2166.5404 2165.6582 2164.5059 2163.6738 2162.2348 2161.1032 2160.2160 2159.3117 2158.0911 2156.8397 2156.0005 2154.5382 2153.8249 2152.7096 2151.4953 2150.1961 2149.3834 2148.1345 2147.0905 2146.0231 2144.6737 2143.7815 2142.5756 2141.7493 2140.6129 2139.2140 2138.1902 2136.9123 2136.1177 2134.8859 2133.7835 2133.8067 2134.9261 2136.1889 2137.1807 2138.4529 2139.2676 2140.4869 2141.2952 2142.7926 2143.6954 2144.8284 2146.0370 2146.9286 2147.8681 2149.0149 2150.1840 2151.5282 2152.5904 2153.4183 2154.8026 2155.7471 2157.0578 2158.2055 2159.1479 2160.2650 2161.1336 2162.2459 2163.3456 2164.5060 2165.6336 2166.6869 2167.9334 2168.7707 2169.9311 2171.3413 2172.1295 2173.4150 2174.2022 2175.5602 2176.5930 2177.6657 2178.7567 2179.7443 2181.0842 2182.2812 2183.3941 2184.3950 2185.4849 2186.2938 2187.5181 2188.8117 2189.6240 2191.0639 2191.8984 2193.1688 2194.0707 2195.4163 2196.2647 2197.7025 2198.6693 2199.8632 2200.7800 2202.0331 2203.1150 2203.8388 2205.1167 2206.0427 2207.5495 2208.2291 2209.5488 2210.5121 2211.8080 2212.8483 2213.6665 2214.9485 2215.9270 2217.2171 2218.2794 2219.3880 2220.5125 2221.6585 2222.5670 2224.0050 2224.7006 2226.1040 2227.3110 2228.1657 2229.0522 2230.3944 2231.5235 2232.4641 2233.7337 2234.7318 2235.7796 2236.8129 2237.8112 2238.9558 2240.2607 2241.2971 2242.6428 2243.5547 2244.4074 2245.9501 2247.0479 2247.6979 2248.7988 2249.9325 2251.0268 2252.2026 2253.6308 2254.6555 2255.8055 2256.9351 2257.5998 2258.9017 2259.8496 2260.9828 2262.0519 2263.2489 2264.2728 2265.5226 2266.5661 2267.7980 2268.7457
2322.1071 2321.2429 2319.9122 2319.1102 2317.8931 2316.4959 2315.7485 2314.6833 2313.2928 2312.3870 2311.3804 2310.2821 2309.1687 2307.7243 2306.9646 2305.8762 2304.7473 2303.4540 2302.2000 2301.4147 2300.2837 2299.2935 2298.2256 2297.0369 2295.5955 2294.9046 2293.3336 2292.5455 2291.3321 2290.2273 2289.2879 2288.1605 2286.8824 2286.0297 2284.8632 2283.6818 2282.4588 2281.5830 2280.5508 2279.2628 2277.9376 2277.0432 2276.1808 2275.0237 2273.7224 2272.6237 2271.5378 2270.5994 2269.2615 2268.1862 2267.0317 2266.2598 2265.0879 2263.6175 2262.7598 2261.6334 2260.7481 2259.5346 2258.1454 2257.4359 2255.9286 2254.8233 2253.9725 2252.8046 2251.9288 2250.7149 2249.5722 2248.5578 2247.4306 2246.4337 2245.2162 2243.8652 2242.6855 2241.9651 2240.7278 2239.6489 2238.6544 2237.1668 2236.3247 2235.2668 2233.8507 2232.8757 2231.9140 2230.6232 2229.8586 2228.4635 2227.6561 2226.1301 2225.2074 2223.9454 2223.2099 2221.9709 2221.0131 2219.7222 2218.4717 2217.7131 2216.5873 2215.3182 2214.3494 2213.2234 2211.9390 2210.9075 2210.0538 2208.7674 2207.7981 2206.4598 2205.5771 2204.2077 2203.2152 2202.3563 2201.1479 2200.1438 2198.7566 2197.8042 2196.5095 2195.2655 2194.3141 2193.4364 2192.1576 2191.2553 2189.9108 2188.7242 2187.6306 2186.8668 2185.6636 2184.2966 2183.1576 2182.2283 2181.1242 2180.1707 2178.8267 2177.9943 2176.6620 2175.7535 2174.4204 2173.4701 2172.4182 2171.1009 2170.2961 2168.9926 2167.8835 2167.0315 2165.5605 2164.5113 2163.5678 2162.2820 2161.3613 2160.0680 2159.2399 2157.7914 2156.7135 2155.7265 2154.5118 2153.7555 2152.7351 2151.4247 2150.0766 2149.2737 2148.1349 2146.9048 2146.0176 2144.7480 2143.8176 2142.5204 2141.6565 2140.2298 2139.2670 2138.0987 2137.0465 2135.8888 2134.9974 2133.8026 2132.5215 2131.6860 2131.7021 2132.6723 2133.5651 2135.0557 2135.9250 2137.3346 2138.3212 2139.4009 2140.6189 2141.3354 2142.6612 2143.6959 2144.6336 2146.1049 2147.1285 2148.1574 2149.3105 2150.3984 2151.2971 2152.5599 2153.7255 2154.7931 2156.0643 2157.0375 2158.1198 2158.9831 2160.0015 2161.2733 2162.5935 2163.6412 2164.6466 2165.9183 2166.6654 2168.0328 2169.2907 2169.9370 2171.1430 2172.5289 2173.2702 2174.5273 2175.4757 2176.7269 2177.7188 2178.7712 2180.2968 2181.2592 2182.0984 2183.3317 2184.4077 2185.3367 2186.7500 2187.6342 2189.0122 2190.2201 2191.3304 2192.0969 2193.1146 2194.5005 2195.4861 2196.4824 2197.9199 2198.9381 2199.9626 2200.9813 2202.1457 2203.1802 2204.3241 2205.1959 2206.6156 2207.7501 2208.6239 2210.0517 2210.9735 2212.2111 2213.1052 2214.0088 2215.1467 2216.5300 2217.5449 2218.5758 2219.7631 2220.7204 2221.7877 2223.1751 2223.9657 2225.2526 2226.1805 2227.5288 2228.7352 2229.5507 2230.8937 2231.7850 2232.8442 2234.0777 2235.3765 2236.0854 2237.5897 2238.7024 2239.4434 2240.6622 2241.8436 2242.7250 2243.8006 2245.3048 2246.3110 2247.2146 2248.2622 2249.7338 2250.6331 2251.8261 2252.9958 2253.9900 2255.1341 2255.9722 2257.2530 2258.4354 2259.4708 2260.5290 2261.4834 2262.6784 2263.8274 2264.8983 2266.0171 2266.9246
2321.0850 2319.8168 2318.8239 2317.4694 2316.5765 2315.1914 2314.0777 2313.1736 2312.0817 2311.1199 2309.5930 2308.6762 2307.6056 2306.4260 2305.3726 2304.3025 2303.2775 2302.1105 2300.7517 2299.9373 2298.6995 2297.4663 2296.6668 2295.3020 2294.3982 2293.4078 2292.0103 2291.0737 2289.6260 2288.5277 2287.4373 2286.6557 2285.1748 2284.3496 2283.1907 2281.9191 2280.9150 2280.1059 2278.5535 2277.6290 2276.4385 2275.6670 2274.5005 2273.4524 2272.3240 2271.1957 2270.0974 2268.6318 2267.5969 2266.6912 2265.2430 2264.2286 2263.1453 2262.3183 2261.0462 2259.7831 2258.7353 2257.8532 2256.7531 2255.5775 2254.3739 2253.3959 2252.3878 2251.1134 2249.7496 2248.6762 2247.9243 2246.8643 2245.6012 2244.3066 2243.1339 2242.2374 2241.1905 2240.1310 2239.0401 2237.6951 2236.4945 2235.7341 2234.3098 2233.1452 2232.4464 2231.0296 2230.0768 2228.9308 2228.0481 2226.6055 2225.7194 2224.6009 2223.5725 2222.3322 2221.0897 2219.9808 2218.9032 2217.7551 2216.5964 2215.4657 2214.5242 2213.2960 2212.3020 2211.3882 2210.1900 2209.1218 2208.0180 2207.0513 2205.7643 2204.6011 2203.6627 2202.4724 2201.3228 2200.2232 2199.1064 2197.8290 2196.9641 2195.6342 2194.4606 2193.6252 2192.4093 2191.5203 2190.1207 2189.2497 2187.8947 2186.7109 2185.7233 2184.4878 2183.8104 2182.6590 2181.2558 2180.0586 2179.3662 2178.0538 2177.0553 2175.8462 2174.5379 2173.7187 2172.4923 2171.3391 2170.2598 2168.9668 2167.9596 2167.1732 2165.7236 2164.6448 2163.8479 2162.4439 2161.5382 2160.2430 2159.3050 2158.3158 2156.9617 2155.8611 2154.9767 2153.5111 2152.6377 2151.5685 2150.5294 2149.3642 2148.1776 2147.1458 2145.6851 2144.6836 2143.5516 2142.5526 2141.6205 2140.5345 2139.3125 2138.1138 2137.2645 2135.9439 2134.9385 2133.6875 2132.3951 2131.5953 2130.5752 2129.3623 2129.3673 2130.2872 2131.6112 2132.6716 2133.5441 2135.0806 2135.9909 2136.9685 2138.0250 2139.2237 2140.5024 2141.5041 2142.5258 2143.6034 2144.7903 2145.7474 2147.2771 2147.9920 2149.1443 2150.5496 2151.3510 2152.4725 2153.5481 2154.9886 2155.7977 2157.0409 2157.8900 2159.2483 2160.4153 2161.3766 2162.5274 2163.4440 2164.6168 2165.9558 2167.0043 2168.0071 2169.2814 2170.0861 2171.1508 2172.4580 2173.6181 2174.9358 2175.8516 2176.9861 2177.8997 2178.9123 2180.1115 2181.3281 2182.4984 2183.5250 2184.7802 2186.0266 2187.1121 2187.8396 2188.9755 2190.4183 2191.1961 2192.5510 2193.4934 2194.7109 2195.9291 2197.1004 2197.8015 2199.0328 2200.3437 2201.1893 2202.6287 2203.2541 2204.4984 2205.6314 2206.7148 2207.7952 2209.2497 2209.9776 2211.2446 2212.2452 2213.5474 2214.6356 2215.5686 2216.7678 2217.7127 2218.8255 2219.9159 2221.3029 2222.5284 2223.2904 2224.5619 2225.4494 2226.8141 2228.0508 2228.8503 2230.2544 2231.3198 2232.4940 2233.4247 2234.7212 2235.6284 2236.8971 2237.6768 2239.1668 2240.1202 2241.0794 2242.1581 2243.4067 2244.4607 2245.3847 2246.6035 2247.5721 2249.0646 2249.9030 2250.9031 2252.1629 2253.1451 2254.2950 2255.3901 2256.5273 2257.6612 2258.7773 2259.9325 2261.0165 2262.4016 2263.3587 2264.4798 2265.5537
2319.2584 2318.4210 2317.0408 2316.0013 2314.9056 2314.0744 2312.8338 2311.7916 2310.6559 2309.6336 2308.1132 2307.1544 2306.3522 2304.7780 2303.8844 2302.6367 2301.5889 2300.5838 2299.2812 2298.1431 2297.4372 2295.9462 2294.7952 2293.9251 2292.6627 2291.7231 2290.3905 2289.2301 2288.3950 2287.1998 2285.9641 2285.2121 2284.1189 2282.6940 2281.7198 2280.6155 2279.2742 2278.1749 2276.9548 2276.2118 2275.1632 2273.9089 2272.5543 2271.5073 2270.3223 2269.4449 2268.0837 2267.1583 2265.8920 2265.1478 2263.8607 2262.9692 2261.8266 2260.3425 2259.5807 2258.0814 2257.2760 2255.8579 2254.7565 2253.9044 2252.6509 2251.3717 2250.7319 2249.3385 2248.4226 2247.0367 2246.0229 2244.7953 2243.9933 2242.4965 2241.4431 2240.5279 2239.2677 2238.2073 2237.2791 2235.8607 2234.8498 2233.8225 2232.5825 2231.5311 2230.6268 2229.4690 2228.3243 2227.2966 2226.2446 2224.7905 2224.0126 2222.8411 2221.5002 2220.5685 2219.4040 2218.2383 2217.0318 2216.0100 2215.1181 2214.0028 2212.5924 2211.7827 2210.6265 2209.3774 2208.3422 2206.8875 2206.0392 2204.6656 2203.9934 2202.8017 2201.4525 2200.5764 2199.4635 2198.2592 2196.9179 2195.9399 2195.1327 2193.6117 2192.5849 2191.4743 2190.6796 2189.1259 2188.4613 2187.2183 2185.9211 2184.8177 2183.8197 2182.4929 2181.7982 2180.6137 2179.3856 2178.3212 2177.1813 2176.0167 2174.9756 2173.6033 2172.6032 2171.6061 2170.6376 2169.4503 2168.4306 2166.9100 2166.0835 2164.9035 2163.7074 2162.4184 2161.2975 2160.2653 2159.3582 2158.4006 2156.8883 2155.9535 2154.7905 2153.9181 2152.4631 2151.4680 2150.3809 2149.2738 2148.1924 2146.9271 2146.1256 2144.6364 2143.9025 2142.6395 2141.7441 2140.5708 2139.5077 2138.2194 2137.1955 2136.1987 2134.9761 2133.9431 2132.6971 2131.3017 2130.5599 2129.3976 2128.3194 2127.0064 2127.0649 2128.0118 2129.2627 2130.4040 2131.6637 2132.8319 2133.6921 2134.6066 2135.7980 2137.1626 2137.9645 2139.2357 2140.6175 2141.5519 2142.7963 2143.9863 2144.7593 2146.1428 2147.2574 2148.0487 2149.2079 2150.2287 2151.5851 2152.5246 2153.9362 2154.9105 2155.7511 2157.1591 2158.4004 2159.3097 2160.5459 2161.7492 2162.6817 2163.9784 2164.7599 2165.9669 2166.8843 2168.2613 2169.1808 2170.3467 2171.3124 2172.7804 2173.8077 2174.6717 2175.9907 2177.3442 2178.3662 2179.4433 2180.5039 2181.7949 2182.6887 2183.9335 2184.8184 2185.9228 2186.9578 2188.4789 2189.5644 2190.4252 2191.4123 2192.4963 2193.9730 2195.1144 2195.9632 2196.9744 2198.1699 2199.5838 2200.5232 2201.5884 2202.5918 2203.8496 2205.0344 2206.2609 2207.1478 2208.1188 2209.3199 2210.6790 2211.4449 2212.6417 2213.9859 2214.8568 2215.9791 2217.2211 2218.3859 2219.5010 2220.4452 2221.6054 2222.8845 2223.7222 2225.0535 2226.0470 2227.0792 2228.2690 2229.2308 2230.4535 2231.4557 2232.8372 2234.0362 2234.7926 2235.8568 2237.0486 2238.5104 2239.1435 2240.4346 2241.6840 2242.4905 2243.8478 2245.0778 2245.9408 2247.1386 2248.2476 2249.2064 2250.2614 2251.4182 2252.6529 2253.6670 2255.2005 2255.8435 2256.9874 2258.3427 2259.5724 2260.3784 2261.6086 2262.5440 2263.6655
2318.1421 2316.8849 2316.0158 2314.6556 2313.5573 2312.7045 2311.6133 2310.0361 2309.1229 2307.7767 2307.0175 2306.0267 2304.9132 2303.5042 2302.2254 2301.1546 2299.9512 2299.2672 2297.9004 2296.9362 2295.7617 2294.7586 2293.6227 2292.3245 2291.5100 2290.1188 2288.9144 2287.9045 2286.6483 2285.4295 2284.4420 2283.3532 2282.1522 2281.0289 2280.0809 2279.0919 2277.6653 2276.7152 2275.6593 2274.3601 2273.2081 2272.0456 2271.1399 2270.0715 2268.9777 2267.5745 2266.4514 2265.6460 2264.2518 2263.1026 2262.0471 2261.0569 2259.9314 2259.1078 2257.6086 2256.5911 2255.5510 2254.4078 2253.0884 2252.0566 2250.8706 2249.7211 2249.0574 2247.8692 2246.3824 2245.3553 2244.1281 2243.4170 2242.2494 2240.9024 2239.8097 2238.6308 2237.7090 2236.4786 2235.4221 2234.4374 2233.1315 2232.0374 2230.8406 2229.9274 2228.8824 2227.7932 2226.3413 2225.3201 2224.1545 2223.0942 2221.8562 2220.9634 2219.5340 2218.5348 2217.4559 2216.3620 2215.2353 2214.2141 2212.9746 2211.7017 2210.9205 2209.6735 2208.4173 2207.4972 2206.1213 2205.4857 2204.1542 2203.2228 2201.7855 2200.7910 2199.4279 2198.5261 2197.6503 2196.1172 2194.9967 2194.1706 2193.1135 2191.8113 2190.6307 2189.6269 2188.6711 2187.1542 2186.2307 2185.3409 2184.2526 2182.8142 2181.6986 2180.7840 2179.7325 2178.2343 2177.3920 2176.2535 2175.3094 2174.1414 2172.9914 2171.6414 2170.4903 2169.4877 2168.2932 2167.1883 2165.9419 2165.0667 2163.6715 2162.9210 2161.7223 2160.4521 2159.3735 2158.2721 2157.3062 2156.3163 2155.1696 2153.7576 2152.5670 2151.4896 2150.6691 2149.2681 2148.3229 2147.0086 2146.2020 2144.7266 2144.0182 2142.6789 2141.5717 2140.4304 2139.2089 2138.0223 2137.0159 2135.9559 2134.7135 2133.5837 2132.7234 2131.5390 2130.5330 2129.2761 2128.0041 2126.9644 2125.9365 2124.9867 2124.9244 2125.8830 2127.0827 2128.2829 2129.1238 2130.2125 2131.5657 2132.7070 2133.7018 2134.8309 2135.9541 2136.9665 2138.1691 2139.1553 2140.5948 2141.7750 2142.8328 2143.6158 2145.0401 2145.8763 2147.0229 2148.1760 2149.4841 2150.4542 2151.4955 2152.5043 2153.9941 2154.8113 2156.2375 2157.1713 2158.2591 2159.4574 2160.3513 2161.4727 2162.9530 2164.0390 2165.0699 2165.9993 2167.4578 2168.2459 2169.4964 2170.5762 2171.8938 2172.9497 2174.0824 2175.2872 2176.2760 2177.4809 2178.3699 2179.6209 2180.7857 2182.0108 2182.7968 2183.9893 2185.1015 2186.4763 2187.5088 2188.4429 2189.6555 2190.5886 2192.0258 2193.0674 2193.8955 2195.2899 2196.5130 2197.6187 2198.3437 2199.6095 2200.6988 2201.7396 2202.8376 2203.9440 2205.0811 2206.3742 2207.7249 2208.5839 2209.7408 2210.6045 2211.9889 2213.1439 2214.0595 2215.1061 2216.5306 2217.4667 2218.4583 2219.5971 2220.7863 2222.0528 2222.8746 2224.2159 2225.5594 2226.2718 2227.6587 2228.8984 2229.6603 2230.7762 2232.0551 2233.1642 2234.4662 2235.5268 2236.6678 2237.6815 2238.6689 2239.7800 2240.9336 2242.0044 2243.2519 2244.5513 2245.4174 2246.6772 2247.5922 2248.7699 2249.9513 2251.0785 2252.3420 2253.3652 2254.3955 2255.6839 2256.4987 2257.9363 2258.8831 2260.0816 2260.8517 2262.2896
2316.6116 2315.7948 2314.5102 2313.1896 2312.2281 2311.3203 2309.9853 2308.9979 2307.6652 2306.5661 2305.5162 2304.5939 2303.1742 2302.2944 2300.7308 2299.8170 2298.5221 2297.7600 2296.7020 2295.3793 2294.3047 2293.2391 2291.8528 2290.7410 2289.6890 2288.4999 2287.6681 2286.3723 2285.5171 2284.0834 2282.8945 2281.9987 2280.8649 2279.6614 2278.5754 2277.2064 2276.5313 2275.1221 2274.1217 2273.1333 2271.7543 2270.7407 2269.5010 2268.2456 2267.4069 2265.9775 2265.0246 2264.0191 2262.5850 2261.5758 2260.6552 2259.6195 2258.1959 2257.1589 2256.1572 2254.7667 2253.9815 2252.5746 2251.6299 2250.4073 2249.2108 2248.3597 2246.9415 2245.8437 2244.8047 2243.6396 2242.4760 2241.5913 2240.2073 2239.1303 2238.0282 2237.2134 2235.8921 2234.8030 2233.6138 2232.5713 2231.3905 2230.0602 2229.2941 2227.7904 2227.0354 2225.8840 2224.6516 2223.6635 2222.2509 2221.0941 2220.2265 2219.0173 2217.8771 2216.7872 2215.6266 2214.5729 2213.3119 2212.4180 2211.2074 2209.9435 2209.1205 2207.7893 2206.7067 2205.4316 2204.6178 2203.1033 2202.2514 2201.0030 2199.7811 2199.0367 2197.6006 2196.5517 2195.4661 2194.3416 2193.3431 2192.3254 2191.2328 2189.8150 2188.5504 2187.6160 2186.6892 2185.5354 2184.3641 2183.2057 2182.0210 2180.8252 2179.9305 2178.5101 2177.6641 2176.6288 2175.0567 2174.3936 2172.8554 2171.9831 2170.7264 2169.8855 2168.7691 2167.2563 2166.2115 2165.2622 2163.9755 2163.1575 2161.9630 2160.5525 2159.6931 2158.5939 2157.1140 2156.2786 2155.3135 2153.8202 2153.0955 2151.8886 2150.7676 2149.7235 2148.3638 2147.2685 2146.0015 2145.2080 2144.0571 2142.6131 2141.8215 2140.6987 2139.4339 2138.4307 2137.2923 2136.0487 2134.7685 2133.8521 2132.5292 2131.3655 2130.6434 2129.5176 2128.2290 2127.0001 2125.9585 2124.9483 2123.8171 2122.3625 2122.5418 2123.5046 2124.5629 2125.9177 2126.8030 2128.3040 2129.0425 2130.3345 2131.4680 2132.7750 2133.6891 2135.1187 2135.9703 2137.1583 2138.3556 2139.1679 2140.4130 2141.5975 2142.8431 2143.8876 2145.1944 2145.9273 2147.3390 2148.1603 2149.4516 2150.5660 2151.9552 2152.7408 2154.2229 2155.0676 2156.2177 2157.5717 2158.5106 2159.6457 2160.7925 2161.8241 2163.1351 2164.2610 2165.0505 2166.5516 2167.5145 2168.3982 2169.7965 2170.8428 2171.8780 2173.2950 2173.9600 2175.4096 2176.5712 2177.6297 2178.8026 2179.8197 2180.8888 2182.2459 2183.2570 2184.5025 2185.2683 2186.4474 2187.3993 2188.8737 2189.8956 2191.0680 2192.1543 2193.0991 2194.2318 2195.5964 2196.6339 2197.9434 2198.8807 2200.1680 2201.3009 2202.0543 2203.2925 2204.4562 2205.6033 2206.8374 2207.7789 2208.7903 2210.2909 2211.3528 2212.1942 2213.4614 2214.7923 2215.8124 2216.9390 2218.0385 2219.2499 2220.2620 2221.5117 2222.3346 2223.4590 2224.4925 2226.0388 2226.9680 2228.0617 2229.0617 2230.0750 2231.3424 2232.6009 2233.4481 2234.5780 2235.7432 2236.9403 2238.0187 2239.0136 2240.5443 2241.6255 2242.4562 2243.6350 2245.0190 2245.9418 2247.1363 2248.3305 2249.2983 2250.3483 2251.8055 2252.5803 2253.8317 2254.7782 2255.9691 2257.1909 2258.2373 2259.6839 2260.4263
2315.1662 2314.1846 2312.8756 2311.8172 2311.0173 2309.7607 2308.3553 2307.5602 2306.1918 2304.9171 2304.1189 2303.1300 2301.6223 2300.7904 2299.3941 2298.2757 2297.0851 2296.1802 2294.8100 2293.8926 2292.9994 2291.8301 2290.4239 2289.3698 2288.4740 2287.0220 2286.0654 2285.0627 2283.6403 2282.7851 2281.3609 2280.1805 2279.4096 2277.9519 2276.8685 2275.6898 2274.5097 2273.4348 2272.2556 2271.4369 2270.4574 2269.0781 2268.0948 2266.8684 2265.8746 2264.7815 2263.2935 2262.3591 2261.1733 2260.0298 2258.8846 2257.5696 2256.8641 2255.7334 2254.4260 2253.1156 2252.1127 2250.9206 2250.1775 2248.8588 2247.6876 2246.4348 2245.2251 2244.2466 2243.1064 2241.9019 2241.0033 2239.7632 2238.5713 2237.4970 2236.3767 2235.2017 2234.3568 2233.2296 2231.8726 2230.8479 2229.6382 2228.2983 2227.1805 2226.3988 2225.1946 2224.0022 2222.6258 2221.8807 2220.4303 2219.6043 2218.2505 2217.1433 2216.2450 2215.2332 2213.7753 2212.5970 2211.6021 2210.2559 2209.4102 2208.1616 2207.3039 2206.1964 2204.8566 2203.7359 2202.3841 2201.2442 2200.5521 2199.3357 2198.3156 2196.7523 2195.8467 2194.6479 2193.7627 2192.5244 2191.2749 2190.4361 2189.3079 2188.0099 2186.9971 2185.7026 2184.5909 2183.5310 2182.1952 2181.0549 2180.1222 2178.8740 2177.9528 2176.4838 2175.6046 2174.4756 2173.2717 2172.3714 2171.1408 2170.0084 2168.9088 2167.8332 2166.5984 2165.6200 2164.3358 2162.9424 2162.2089 2160.7698 2159.5219 2158.5213 2157.6536 2156.5605 2155.4091 2153.9568 2153.0162 2152.0613 2150.7746 2149.8382 2148.4207 2147.5949 2146.3264 2144.9022 2144.1489 2142.9808 2141.7700 2140.7191 2139.6375 2138.5652 2137.1443 2135.9371 2134.8077 2134.0692 2132.5453 2131.6192 2130.5311 2129.5145 2128.1582 2126.8972 2126.0618 2124.9752 2123.6916 2122.5382 2121.6250 2120.4142 2120.3076 2121.2561 2122.5669 2123.8650 2124.7413 2125.8888 2127.1185 2128.3263 2129.2868 2130.5183 2131.5665 2132.7008 2133.7351 2135.0399 2136.3255 2137.4510 2138.4779 2139.4989 2140.7783 2141.4857 2142.7387 2143.8908 2144.8500 2146.4317 2147.2876 2148.2368 2149.7822 2150.7759 2151.6613 2153.2101 2154.2069 2155.1896 2156.4315 2157.6257 2158.7769 2159.7669 2160.9222 2162.2231 2163.1993 2164.0530 2165.5615 2166.3349 2167.6266 2168.7956 2169.8754 2171.1161 2171.9857 2173.4989 2174.6037 2175.4895 2176.4422 2177.9606 2178.6682 2180.0677 2181.1938 2182.4789 2183.2621 2184.6318 2185.5941 2186.8356 2188.0820 2188.9862 2190.1751 2191.3936 2192.5572 2193.6908 2194.7563 2196.0219 2196.8004 2198.1198 2199.3945 2200.5322 2201.2219 2202.4079 2203.6727 2204.8772 2206.0984 2207.3274 2208.0563 2209.3421 2210.6218 2211.8320 2212.6589 2213.7463 2215.2159 2215.9634 2217.3485 2218.1233 2219.3425 2220.4782 2221.6536 2223.0319 2223.8969 2225.0552 2226.4051 2227.6173 2228.6918 2229.7115 2230.8509 2232.0093 2232.9642 2233.9825 2235.4019 2236.2808 2237.3754 2238.8592 2240.0141 2240.7713 2242.2805 2243.1684 2244.3241 2245.3671 2246.6140 2247.5165 2248.7094 2250.1436 2251.0893 2252.3317 2253.3759 2254.5337 2255.4329 2256.4598 2258.0040 2259.0084
2313.7018 2312.8382 2311.8122 2310.3304 2309.2579 2308.3014 2307.0931 2305.9576 2305.0105 2303.7831 2302.5583 2301.6242 2300.1030 2299.4151 2298.0074 2297.0677 2295.7969 2294.8585 2293.7225 2292.4660 2291.2852 2290.0884 2289.1037 2287.7640 2286.5931 2285.7497 2284.4062 2283.4171 2282.2789 2281.3275 2280.0478 2278.6639 2277.7737 2276.5249 2275.5613 2274.3473 2272.9495 2272.1176 2270.6973 2269.6487 2268.6183 2267.5958 2266.5447 2265.1682 2263.9515 2262.7559 2261.7368 2260.7220 2259.6622 2258.6365 2257.1340 2255.9756 2255.1645 2253.9605 2252.9933 2251.8220 2250.6919 2249.6305 2248.1361 2247.0523 2245.8348 2245.1020 2243.8407 2242.4673 2241.6987 2240.4916 2239.3262 2238.0639 2236.8738 2235.6780 2234.8908 2233.7160 2232.6103 2231.0336 2230.2292 2228.9485 2228.0873 2226.6296 2225.5056 2224.5408 2223.0973 2222.3889 2221.2309 2219.9116 2218.5697 2217.6928 2216.5132 2215.5251 2214.4160 2213.2459 2212.2258 2210.8339 2209.9838 2208.8443 2207.6358 2206.1381 2205.0084 2203.9065 2202.9021 2201.6721 2200.6649 2199.5572 2198.6657 2197.0568 2196.1886 2195.0933 2193.8487 2192.6129 2191.5086 2190.6206 2189.3914 2188.0198 2187.1946 2186.1958 2184.6214 2183.4982 2182.8123 2181.4849 2180.4208 2179.1971 2178.0064 2176.9613 2175.8315 2174.4113 2173.2845 2172.3872 2171.4740 2170.1386 2168.7722 2167.9945 2166.4926 2165.4702 2164.6435 2163.4031 2162.1280 2161.0488 2160.1045 2158.7543 2157.4830 2156.4915 2155.5019 2154.0474 2153.3058 2152.2374 2150.7607 2149.6213 2148.4025 2147.4811 2146.3595 2145.0912 2143.8812 2143.1414 2141.7235 2140.5522 2139.7189 2138.3641 2137.4642 2136.1599 2135.0017 2133.6479 2132.6303 2131.7937 2130.3849 2129.1658 2127.9992 2127.3420 2125.8185 2124.7260 2123.5760 2122.7173 2121.5860 2120.3379 2119.3803 2117.9266 2118.2495 2119.0691 2120.4377 2121.3021 2122.3789 2123.9543 2125.0534 2125.8082 2126.8926 2128.3272 2129.4818 2130.6508 2131.6725 2132.8139 2133.8915 2135.2442 2135.9447 2137.3941 2138.4764 2139.5111 2140.8308 2141.8639 2142.7776 2144.1396 2145.2944 2146.2889 2147.3163 2148.3965 2149.5823 2150.9907 2152.0262 2153.1865 2154.2683 2155.3996 2156.5872 2157.8217 2158.8705 2160.0696 2161.3114 2162.1662 2163.2129 2164.6720 2165.7168 2166.7227 2167.6330 2168.7573 2170.2953 2171.0221 2172.1425 2173.6086 2174.7006 2175.9747 2176.9654 2178.1268 2179.3330 2180.1970 2181.5437 2182.6794 2183.7587 2184.8804 2186.1689 2187.0299 2188.4177 2189.5406 2190.5924 2191.6662 2192.7003 2193.7041 2195.2591 2196.3175 2197.1071 2198.5588 2199.6096 2200.6381 2201.7268 2203.0898 2204.0925 2205.1053 2206.5191 2207.6931 2208.7973 2209.7965 2210.6469 2211.8828 2213.0996 2214.4248 2215.4550 2216.7049 2217.4975 2218.9484 2219.7981 2220.8863 2222.1117 2223.4378 2224.4495 2225.3943 2226.7802 2228.0570 2229.1472 2230.0736 2231.1917 2232.4829 2233.3434 2234.6100 2235.5775 2236.8794 2238.1051 2239.0408 2240.3832 2241.2099 2242.7073 2243.8771 2244.8773 2246.1212 2247.2113 2248.0544 2249.4655 2250.3362 2251.5547 2252.5309 2253.7582 2254.8875 2255.9869 2257.4331
