ncols         400
nrows         35
xllcorner     100000
yllcorner     103130
cellsize      10
NODATA_value  -9999
2420.9 2420.1 2419.2 2418.4 2417.5 2416.7 2415.8 2415 2414.1 2413.3 2412.5 2411.6 2410.8 2409.9 2409.1 2408.2 2407.4 2406.5 2405.7 2404.8 2404 2403.1 2402.3 2401.4 2400.6 2399.7 2398.9 2398 2397.2 2396.4 2395.5 2394.7 2393.8 2393 2392.1 2391.3 2390.4 2389.6 2388.7 2387.9 2387 2386.2 2385.3 2384.5 2383.6 2382.8 2381.9 2381.1 2380.2 2379.4 2378.6 2377.7 2376.9 2376 2375.2 2374.3 2373.5 2372.6 2371.8 2370.9 2370.1 2369.2 2368.4 2367.5 2366.7 2365.8 2365 2364.1 2363.3 2362.5 2361.6 2360.8 2359.9 2359.1 2358.2 2357.4 2356.5 2355.7 2354.8 2354 2353.1 2352.3 2351.4 2350.6 2349.7 2348.9 2348 2347.2 2346.3 2345.5 2344.7 2343.8 2343 2342.1 2341.3 2340.4 2339.6 2338.7 2337.9 2337 2336.2 2335.3 2334.5 2333.6 2332.8 2331.9 2331.1 2330.2 2329.4 2328.6 2327.7 2326.9 2326 2325.2 2324.3 2323.5 2322.6 2321.8 2320.9 2320.1 2319.2 2318.4 2317.5 2316.7 2315.8 2315 2314.1 2313.3 2312.5 2311.6 2310.8 2309.9 2309.1 2308.2 2307.4 2306.5 2305.7 2304.8 2304 2303.1 2302.3 2301.4 2300.6 2299.7 2298.9 2298 2297.2 2296.3 2295.5 2294.7 2293.8 2293 2292.1 2291.3 2290.4 2289.6 2288.7 2287.9 2287 2286.2 2285.3 2284.5 2283.6 2282.8 2281.9 2281.1 2280.2 2279.4 2278.6 2277.7 2276.9 2276 2275.2 2274.3 2273.5 2272.6 2271.8 2270.9 2270.1 2269.2 2268.4 2267.5 2266.7 2265.8 2265 2264.1 2263.3 2262.5 2261.6 2260.8 2259.9 2259.1 2258.2 2257.4 2256.5 2255.7 2254.8 2254 2253.1 2252.3 2252.3 2253.1 2254 2254.8 2255.7 2256.5 2257.4 2258.2 2259.1 2259.9 2260.8 2261.6 2262.5 2263.3 2264.1 2265 2265.8 2266.7 2267.5 2268.4 2269.2 2270.1 2270.9 2271.8 2272.6 2273.5 2274.3 2275.2 2276 2276.9 2277.7 2278.6 2279.4 2280.2 2281.1 2281.9 2282.8 2283.6 2284.5 2285.3 2286.2 2287 2287.9 2288.7 2289.6 2290.4 2291.3 2292.1 2293 2293.8 2294.7 2295.5 2296.3 2297.2 2298 2298.9 2299.7 2300.6 2301.4 2302.3 2303.1 2304 2304.8 2305.7 2306.5 2307.4 2308.2 2309.1 2309.9 2310.8 2311.6 2312.5 2313.3 2314.1 2315 2315.8 2316.7 2317.5 2318.4 2319.2 2320.1 2320.9 2321.8 2322.6 2323.5 2324.3 2325.2 2326 2326.9 2327.7 2328.6 2329.4 2330.2 2331.1 2331.9 2332.8 2333.6 2334.5 2335.3 2336.2 2337 2337.9 2338.7 2339.6 2340.4 2341.3 2342.1 2343 2343.8 2344.7 2345.5 2346.3 2347.2 2348 2348.9 2349.7 2350.6 2351.4 2352.3 2353.1 2354 2354.8 2355.7 2356.5 2357.4 2358.2 2359.1 2359.9 2360.8 2361.6 2362.5 2363.3 2364.1 2365 2365.8 2366.7 2367.5 2368.4 2369.2 2370.1 2370.9 2371.8 2372.6 2373.5 2374.3 2375.2 2376 2376.9 2377.7 2378.6 2379.4 2380.2 2381.1 2381.9 2382.8 2383.6 2384.5 2385.3 2386.2 2387 2387.9 2388.7 2389.6 2390.4 2391.3 2392.1 2393 2393.8 2394.7 2395.5 2396.4 2397.2 2398 2398.9 2399.7 2400.6 2401.4 2402.3 2403.1 2404 2404.8 2405.7 2406.5 2407.4 2408.2 2409.1 2409.9 2410.8 2411.6 2412.5 2413.3 2414.1 2415 2415.8 2416.7 2417.5 2418.4 2419.2 2420.1 2420.9
2419.6 2418.7 2417.9 2417 2416.2 2415.3 2414.5 2413.6 2412.8 2411.9 2411.1 2410.2 2409.4 2408.5 2407.7 2406.8 2405.9 2405.1 2404.2 2403.4 2402.5 2401.7 2400.8 2400 2399.1 2398.3 2397.4 2396.6 2395.7 2394.9 2394 2393.2 2392.3 2391.4 2390.6 2389.7 2388.9 2388 2387.2 2386.3 2385.5 2384.6 2383.8 2382.9 2382.1 2381.2 2380.4 2379.5 2378.6 2377.8 2376.9 2376.1 2375.2 2374.4 2373.5 2372.7 2371.8 2371 2370.1 2369.3 2368.4 2367.6 2366.7 2365.9 2365 2364.1 2363.3 2362.4 2361.6 2360.7 2359.9 2359 2358.2 2357.3 2356.5 2355.6 2354.8 2353.9 2353.1 2352.2 2351.3 2350.5 2349.6 2348.8 2347.9 2347.1 2346.2 2345.4 2344.5 2343.7 2342.8 2342 2341.1 2340.3 2339.4 2338.6 2337.7 2336.8 2336 2335.1 2334.3 2333.4 2332.6 2331.7 2330.9 2330 2329.2 2328.3 2327.5 2326.6 2325.8 2324.9 2324 2323.2 2322.3 2321.5 2320.6 2319.8 2318.9 2318.1 2317.2 2316.4 2315.5 2314.7 2313.8 2313 2312.1 2311.3 2310.4 2309.5 2308.7 2307.8 2307 2306.1 2305.3 2304.4 2303.6 2302.7 2301.9 2301 2300.2 2299.3 2298.5 2297.6 2296.7 2295.9 2295 2294.2 2293.3 2292.5 2291.6 2290.8 2289.9 2289.1 2288.2 2287.4 2286.5 2285.7 2284.8 2284 2283.1 2282.2 2281.4 2280.5 2279.7 2278.8 2278 2277.1 2276.3 2275.4 2274.6 2273.7 2272.9 2272 2271.2 2270.3 2269.4 2268.6 2267.7 2266.9 2266 2265.2 2264.3 2263.5 2262.6 2261.8 2260.9 2260.1 2259.2 2258.4 2257.5 2256.6 2255.8 2254.9 2254.1 2253.2 2252.4 2251.5 2250.7 2249.8 2249.8 2250.7 2251.5 2252.4 2253.2 2254.1 2254.9 2255.8 2256.6 2257.5 2258.4 2259.2 2260.1 2260.9 2261.8 2262.6 2263.5 2264.3 2265.2 2266 2266.9 2267.7 2268.6 2269.4 2270.3 2271.2 2272 2272.9 2273.7 2274.6 2275.4 2276.3 2277.1 2278 2278.8 2279.7 2280.5 2281.4 2282.2 2283.1 2284 2284.8 2285.7 2286.5 2287.4 2288.2 2289.1 2289.9 2290.8 2291.6 2292.5 2293.3 2294.2 2295 2295.9 2296.7 2297.6 2298.5 2299.3 2300.2 2301 2301.9 2302.7 2303.6 2304.4 2305.3 2306.1 2307 2307.8 2308.7 2309.5 2310.4 2311.3 2312.1 2313 2313.8 2314.7 2315.5 2316.4 2317.2 2318.1 2318.9 2319.8 2320.6 2321.5 2322.3 2323.2 2324 2324.9 2325.8 2326.6 2327.5 2328.3 2329.2 2330 2330.9 2331.7 2332.6 2333.4 2334.3 2335.1 2336 2336.8 2337.7 2338.6 2339.4 2340.3 2341.1 2342 2342.8 2343.7 2344.5 2345.4 2346.2 2347.1 2347.9 2348.8 2349.6 2350.5 2351.3 2352.2 2353.1 2353.9 2354.8 2355.6 2356.5 2357.3 2358.2 2359 2359.9 2360.7 2361.6 2362.4 2363.3 2364.1 2365 2365.9 2366.7 2367.6 2368.4 2369.3 2370.1 2371 2371.8 2372.7 2373.5 2374.4 2375.2 2376.1 2376.9 2377.8 2378.6 2379.5 2380.4 2381.2 2382.1 2382.9 2383.8 2384.6 2385.5 2386.3 2387.2 2388 2388.9 2389.7 2390.6 2391.4 2392.3 2393.2 2394 2394.9 2395.7 2396.6 2397.4 2398.3 2399.1 2400 2400.8 2401.7 2402.5 2403.4 2404.2 2405.1 2405.9 2406.8 2407.7 2408.5 2409.4 2410.2 2411.1 2411.9 2412.8 2413.6 2414.5 2415.3 2416.2 2417 2417.9 2418.7 2419.6
2418.3 2417.4 2416.6 2415.7 2414.8 2414 2413.1 2412.3 2411.4 2410.5 2409.7 2408.8 2408 2407.1 2406.2 2405.4 2404.5 2403.7 2402.8 2402 2401.1 2400.2 2399.4 2398.5 2397.7 2396.8 2395.9 2395.1 2394.2 2393.4 2392.5 2391.6 2390.8 2389.9 2389.1 2388.2 2387.4 2386.5 2385.6 2384.8 2383.9 2383.1 2382.2 2381.3 2380.5 2379.6 2378.8 2377.9 2377 2376.2 2375.3 2374.5 2373.6 2372.8 2371.9 2371 2370.2 2369.3 2368.5 2367.6 2366.7 2365.9 2365 2364.2 2363.3 2362.4 2361.6 2360.7 2359.9 2359 2358.2 2357.3 2356.4 2355.6 2354.7 2353.9 2353 2352.1 2351.3 2350.4 2349.6 2348.7 2347.8 2347 2346.1 2345.3 2344.4 2343.6 2342.7 2341.8 2341 2340.1 2339.3 2338.4 2337.5 2336.7 2335.8 2335 2334.1 2333.2 2332.4 2331.5 2330.7 2329.8 2329 2328.1 2327.2 2326.4 2325.5 2324.7 2323.8 2322.9 2322.1 2321.2 2320.4 2319.5 2318.6 2317.8 2316.9 2316.1 2315.2 2314.4 2313.5 2312.6 2311.8 2310.9 2310.1 2309.2 2308.3 2307.5 2306.6 2305.8 2304.9 2304 2303.2 2302.3 2301.5 2300.6 2299.8 2298.9 2298 2297.2 2296.3 2295.5 2294.6 2293.7 2292.9 2292 2291.2 2290.3 2289.4 2288.6 2287.7 2286.9 2286 2285.2 2284.3 2283.4 2282.6 2281.7 2280.9 2280 2279.1 2278.3 2277.4 2276.6 2275.7 2274.9 2274 2273.1 2272.3 2271.4 2270.6 2269.7 2268.8 2268 2267.1 2266.3 2265.4 2264.5 2263.7 2262.8 2262 2261.1 2260.3 2259.4 2258.5 2257.7 2256.8 2256 2255.1 2254.2 2253.4 2252.5 2251.7 2250.8 2249.9 2249.1 2248.2 2247.4 2247.4 2248.2 2249.1 2249.9 2250.8 2251.7 2252.5 2253.4 2254.2 2255.1 2256 2256.8 2257.7 2258.5 2259.4 2260.3 2261.1 2262 2262.8 2263.7 2264.5 2265.4 2266.3 2267.1 2268 2268.8 2269.7 2270.6 2271.4 2272.3 2273.1 2274 2274.9 2275.7 2276.6 2277.4 2278.3 2279.1 2280 2280.9 2281.7 2282.6 2283.4 2284.3 2285.2 2286 2286.9 2287.7 2288.6 2289.4 2290.3 2291.2 2292 2292.9 2293.7 2294.6 2295.5 2296.3 2297.2 2298 2298.9 2299.8 2300.6 2301.5 2302.3 2303.2 2304 2304.9 2305.8 2306.6 2307.5 2308.3 2309.2 2310.1 2310.9 2311.8 2312.6 2313.5 2314.4 2315.2 2316.1 2316.9 2317.8 2318.6 2319.5 2320.4 2321.2 2322.1 2322.9 2323.8 2324.7 2325.5 2326.4 2327.2 2328.1 2329 2329.8 2330.7 2331.5 2332.4 2333.2 2334.1 2335 2335.8 2336.7 2337.5 2338.4 2339.3 2340.1 2341 2341.8 2342.7 2343.6 2344.4 2345.3 2346.1 2347 2347.8 2348.7 2349.6 2350.4 2351.3 2352.1 2353 2353.9 2354.7 2355.6 2356.4 2357.3 2358.2 2359 2359.9 2360.7 2361.6 2362.4 2363.3 2364.2 2365 2365.9 2366.7 2367.6 2368.5 2369.3 2370.2 2371 2371.9 2372.8 2373.6 2374.5 2375.3 2376.2 2377 2377.9 2378.8 2379.6 2380.5 2381.3 2382.2 2383.1 2383.9 2384.8 2385.6 2386.5 2387.4 2388.2 2389.1 2389.9 2390.8 2391.6 2392.5 2393.4 2394.2 2395.1 2395.9 2396.8 2397.7 2398.5 2399.4 2400.2 2401.1 2402 2402.8 2403.7 2404.5 2405.4 2406.2 2407.1 2408 2408.8 2409.7 2410.5 2411.4 2412.3 2413.1 2414 2414.8 2415.7 2416.6 2417.4 2418.3
2416.9 2416.1 2415.2 2414.3 2413.5 2412.6 2411.8 2410.9 2410 2409.2 2408.3 2407.4 2406.6 2405.7 2404.8 2404 2403.1 2402.2 2401.4 2400.5 2399.7 2398.8 2397.9 2397.1 2396.2 2395.3 2394.5 2393.6 2392.7 2391.9 2391 2390.1 2389.3 2388.4 2387.6 2386.7 2385.8 2385 2384.1 2383.2 2382.4 2381.5 2380.6 2379.8 2378.9 2378 2377.2 2376.3 2375.4 2374.6 2373.7 2372.9 2372 2371.1 2370.3 2369.4 2368.5 2367.7 2366.8 2365.9 2365.1 2364.2 2363.3 2362.5 2361.6 2360.8 2359.9 2359 2358.2 2357.3 2356.4 2355.6 2354.7 2353.8 2353 2352.1 2351.2 2350.4 2349.5 2348.6 2347.8 2346.9 2346.1 2345.2 2344.3 2343.5 2342.6 2341.7 2340.9 2340 2339.1 2338.3 2337.4 2336.5 2335.7 2334.8 2334 2333.1 2332.2 2331.4 2330.5 2329.6 2328.8 2327.9 2327 2326.2 2325.3 2324.4 2323.6 2322.7 2321.9 2321 2320.1 2319.3 2318.4 2317.5 2316.7 2315.8 2314.9 2314.1 2313.2 2312.3 2311.5 2310.6 2309.7 2308.9 2308 2307.2 2306.3 2305.4 2304.6 2303.7 2302.8 2302 2301.1 2300.2 2299.4 2298.5 2297.6 2296.8 2295.9 2295.1 2294.2 2293.3 2292.5 2291.6 2290.7 2289.9 2289 2288.1 2287.3 2286.4 2285.5 2284.7 2283.8 2282.9 2282.1 2281.2 2280.4 2279.5 2278.6 2277.8 2276.9 2276 2275.2 2274.3 2273.4 2272.6 2271.7 2270.8 2270 2269.1 2268.3 2267.4 2266.5 2265.7 2264.8 2263.9 2263.1 2262.2 2261.3 2260.5 2259.6 2258.7 2257.9 2257 2256.2 2255.3 2254.4 2253.6 2252.7 2251.8 2251 2250.1 2249.2 2248.4 2247.5 2246.6 2245.8 2244.9 2244.9 2245.8 2246.6 2247.5 2248.4 2249.2 2250.1 2251 2251.8 2252.7 2253.6 2254.4 2255.3 2256.2 2257 2257.9 2258.7 2259.6 2260.5 2261.3 2262.2 2263.1 2263.9 2264.8 2265.7 2266.5 2267.4 2268.3 2269.1 2270 2270.8 2271.7 2272.6 2273.4 2274.3 2275.2 2276 2276.9 2277.8 2278.6 2279.5 2280.4 2281.2 2282.1 2282.9 2283.8 2284.7 2285.5 2286.4 2287.3 2288.1 2289 2289.9 2290.7 2291.6 2292.5 2293.3 2294.2 2295.1 2295.9 2296.8 2297.6 2298.5 2299.4 2300.2 2301.1 2302 2302.8 2303.7 2304.6 2305.4 2306.3 2307.2 2308 2308.9 2309.7 2310.6 2311.5 2312.3 2313.2 2314.1 2314.9 2315.8 2316.7 2317.5 2318.4 2319.3 2320.1 2321 2321.9 2322.7 2323.6 2324.4 2325.3 2326.2 2327 2327.9 2328.8 2329.6 2330.5 2331.4 2332.2 2333.1 2334 2334.8 2335.7 2336.5 2337.4 2338.3 2339.1 2340 2340.9 2341.7 2342.6 2343.5 2344.3 2345.2 2346.1 2346.9 2347.8 2348.6 2349.5 2350.4 2351.2 2352.1 2353 2353.8 2354.7 2355.6 2356.4 2357.3 2358.2 2359 2359.9 2360.8 2361.6 2362.5 2363.3 2364.2 2365.1 2365.9 2366.8 2367.7 2368.5 2369.4 2370.3 2371.1 2372 2372.9 2373.7 2374.6 2375.4 2376.3 2377.2 2378 2378.9 2379.8 2380.6 2381.5 2382.4 2383.2 2384.1 2385 2385.8 2386.7 2387.6 2388.4 2389.3 2390.1 2391 2391.9 2392.7 2393.6 2394.5 2395.3 2396.2 2397.1 2397.9 2398.8 2399.7 2400.5 2401.4 2402.2 2403.1 2404 2404.8 2405.7 2406.6 2407.4 2408.3 2409.2 2410 2410.9 2411.8 2412.6 2413.5 2414.3 2415.2 2416.1 2416.9
2415.6 2414.7 2413.9 2413 2412.1 2411.3 2410.4 2409.5 2408.7 2407.8 2406.9 2406 2405.2 2404.3 2403.4 2402.6 2401.7 2400.8 2400 2399.1 2398.2 2397.3 2396.5 2395.6 2394.7 2393.9 2393 2392.1 2391.3 2390.4 2389.5 2388.6 2387.8 2386.9 2386 2385.2 2384.3 2383.4 2382.5 2381.7 2380.8 2379.9 2379.1 2378.2 2377.3 2376.5 2375.6 2374.7 2373.8 2373 2372.1 2371.2 2370.4 2369.5 2368.6 2367.8 2366.9 2366 2365.1 2364.3 2363.4 2362.5 2361.7 2360.8 2359.9 2359.1 2358.2 2357.3 2356.4 2355.6 2354.7 2353.8 2353 2352.1 2351.2 2350.4 2349.5 2348.6 2347.7 2346.9 2346 2345.1 2344.3 2343.4 2342.5 2341.7 2340.8 2339.9 2339 2338.2 2337.3 2336.4 2335.6 2334.7 2333.8 2333 2332.1 2331.2 2330.3 2329.5 2328.6 2327.7 2326.9 2326 2325.1 2324.2 2323.4 2322.5 2321.6 2320.8 2319.9 2319 2318.2 2317.3 2316.4 2315.5 2314.7 2313.8 2312.9 2312.1 2311.2 2310.3 2309.5 2308.6 2307.7 2306.8 2306 2305.1 2304.2 2303.4 2302.5 2301.6 2300.8 2299.9 2299 2298.1 2297.3 2296.4 2295.5 2294.7 2293.8 2292.9 2292.1 2291.2 2290.3 2289.4 2288.6 2287.7 2286.8 2286 2285.1 2284.2 2283.4 2282.5 2281.6 2280.7 2279.9 2279 2278.1 2277.3 2276.4 2275.5 2274.7 2273.8 2272.9 2272 2271.2 2270.3 2269.4 2268.6 2267.7 2266.8 2265.9 2265.1 2264.2 2263.3 2262.5 2261.6 2260.7 2259.9 2259 2258.1 2257.2 2256.4 2255.5 2254.6 2253.8 2252.9 2252 2251.2 2250.3 2249.4 2248.5 2247.7 2246.8 2245.9 2245.1 2244.2 2243.3 2242.5 2242.5 2243.3 2244.2 2245.1 2245.9 2246.8 2247.7 2248.5 2249.4 2250.3 2251.2 2252 2252.9 2253.8 2254.6 2255.5 2256.4 2257.2 2258.1 2259 2259.9 2260.7 2261.6 2262.5 2263.3 2264.2 2265.1 2265.9 2266.8 2267.7 2268.6 2269.4 2270.3 2271.2 2272 2272.9 2273.8 2274.7 2275.5 2276.4 2277.3 2278.1 2279 2279.9 2280.7 2281.6 2282.5 2283.4 2284.2 2285.1 2286 2286.8 2287.7 2288.6 2289.4 2290.3 2291.2 2292.1 2292.9 2293.8 2294.7 2295.5 2296.4 2297.3 2298.1 2299 2299.9 2300.8 2301.6 2302.5 2303.4 2304.2 2305.1 2306 2306.8 2307.7 2308.6 2309.5 2310.3 2311.2 2312.1 2312.9 2313.8 2314.7 2315.5 2316.4 2317.3 2318.2 2319 2319.9 2320.8 2321.6 2322.5 2323.4 2324.2 2325.1 2326 2326.9 2327.7 2328.6 2329.5 2330.3 2331.2 2332.1 2333 2333.8 2334.7 2335.6 2336.4 2337.3 2338.2 2339 2339.9 2340.8 2341.7 2342.5 2343.4 2344.3 2345.1 2346 2346.9 2347.7 2348.6 2349.5 2350.4 2351.2 2352.1 2353 2353.8 2354.7 2355.6 2356.4 2357.3 2358.2 2359.1 2359.9 2360.8 2361.7 2362.5 2363.4 2364.3 2365.1 2366 2366.9 2367.8 2368.6 2369.5 2370.4 2371.2 2372.1 2373 2373.8 2374.7 2375.6 2376.5 2377.3 2378.2 2379.1 2379.9 2380.8 2381.7 2382.5 2383.4 2384.3 2385.2 2386 2386.9 2387.8 2388.6 2389.5 2390.4 2391.3 2392.1 2393 2393.9 2394.7 2395.6 2396.5 2397.3 2398.2 2399.1 2400 2400.8 2401.7 2402.6 2403.4 2404.3 2405.2 2406 2406.9 2407.8 2408.7 2409.5 2410.4 2411.3 2412.1 2413 2413.9 2414.7 2415.6
2414.3 2413.4 2412.5 2411.7 2410.8 2409.9 2409 2408.2 2407.3 2406.4 2405.5 2404.7 2403.8 2402.9 2402 2401.1 2400.3 2399.4 2398.5 2397.6 2396.8 2395.9 2395 2394.1 2393.3 2392.4 2391.5 2390.6 2389.8 2388.9 2388 2387.1 2386.3 2385.4 2384.5 2383.6 2382.8 2381.9 2381 2380.1 2379.3 2378.4 2377.5 2376.6 2375.8 2374.9 2374 2373.1 2372.2 2371.4 2370.5 2369.6 2368.7 2367.9 2367 2366.1 2365.2 2364.4 2363.5 2362.6 2361.7 2360.9 2360 2359.1 2358.2 2357.4 2356.5 2355.6 2354.7 2353.9 2353 2352.1 2351.2 2350.4 2349.5 2348.6 2347.7 2346.8 2346 2345.1 2344.2 2343.3 2342.5 2341.6 2340.7 2339.8 2339 2338.1 2337.2 2336.3 2335.5 2334.6 2333.7 2332.8 2332 2331.1 2330.2 2329.3 2328.5 2327.6 2326.7 2325.8 2325 2324.1 2323.2 2322.3 2321.5 2320.6 2319.7 2318.8 2317.9 2317.1 2316.2 2315.3 2314.4 2313.6 2312.7 2311.8 2310.9 2310.1 2309.2 2308.3 2307.4 2306.6 2305.7 2304.8 2303.9 2303.1 2302.2 2301.3 2300.4 2299.6 2298.7 2297.8 2296.9 2296.1 2295.2 2294.3 2293.4 2292.5 2291.7 2290.8 2289.9 2289 2288.2 2287.3 2286.4 2285.5 2284.7 2283.8 2282.9 2282 2281.2 2280.3 2279.4 2278.5 2277.7 2276.8 2275.9 2275 2274.2 2273.3 2272.4 2271.5 2270.7 2269.8 2268.9 2268 2267.2 2266.3 2265.4 2264.5 2263.6 2262.8 2261.9 2261 2260.1 2259.3 2258.4 2257.5 2256.6 2255.8 2254.9 2254 2253.1 2252.3 2251.4 2250.5 2249.6 2248.8 2247.9 2247 2246.1 2245.3 2244.4 2243.5 2242.6 2241.8 2240.9 2240 2240 2240.9 2241.8 2242.6 2243.5 2244.4 2245.3 2246.1 2247 2247.9 2248.8 2249.6 2250.5 2251.4 2252.3 2253.1 2254 2254.9 2255.8 2256.6 2257.5 2258.4 2259.3 2260.1 2261 2261.9 2262.8 2263.6 2264.5 2265.4 2266.3 2267.2 2268 2268.9 2269.8 2270.7 2271.5 2272.4 2273.3 2274.2 2275 2275.9 2276.8 2277.7 2278.5 2279.4 2280.3 2281.2 2282 2282.9 2283.8 2284.7 2285.5 2286.4 2287.3 2288.2 2289 2289.9 2290.8 2291.7 2292.5 2293.4 2294.3 2295.2 2296.1 2296.9 2297.8 2298.7 2299.6 2300.4 2301.3 2302.2 2303.1 2303.9 2304.8 2305.7 2306.6 2307.4 2308.3 2309.2 2310.1 2310.9 2311.8 2312.7 2313.6 2314.4 2315.3 2316.2 2317.1 2317.9 2318.8 2319.7 2320.6 2321.5 2322.3 2323.2 2324.1 2325 2325.8 2326.7 2327.6 2328.5 2329.3 2330.2 2331.1 2332 2332.8 2333.7 2334.6 2335.5 2336.3 2337.2 2338.1 2339 2339.8 2340.7 2341.6 2342.5 2343.3 2344.2 2345.1 2346 2346.8 2347.7 2348.6 2349.5 2350.4 2351.2 2352.1 2353 2353.9 2354.7 2355.6 2356.5 2357.4 2358.2 2359.1 2360 2360.9 2361.7 2362.6 2363.5 2364.4 2365.2 2366.1 2367 2367.9 2368.7 2369.6 2370.5 2371.4 2372.2 2373.1 2374 2374.9 2375.8 2376.6 2377.5 2378.4 2379.3 2380.1 2381 2381.9 2382.8 2383.6 2384.5 2385.4 2386.3 2387.1 2388 2388.9 2389.8 2390.6 2391.5 2392.4 2393.3 2394.1 2395 2395.9 2396.8 2397.6 2398.5 2399.4 2400.3 2401.1 2402 2402.9 2403.8 2404.7 2405.5 2406.4 2407.3 2408.2 2409 2409.9 2410.8 2411.7 2412.5 2413.4 2414.3
2413 2412.1 2411.2 2410.3 2409.4 2408.6 2407.7 2406.8 2405.9 2405 2404.1 2403.3 2402.4 2401.5 2400.6 2399.7 2398.9 2398 2397.1 2396.2 2395.3 2394.4 2393.6 2392.7 2391.8 2390.9 2390 2389.2 2388.3 2387.4 2386.5 2385.6 2384.8 2383.9 2383 2382.1 2381.2 2380.3 2379.5 2378.6 2377.7 2376.8 2375.9 2375.1 2374.2 2373.3 2372.4 2371.5 2370.6 2369.8 2368.9 2368 2367.1 2366.2 2365.4 2364.5 2363.6 2362.7 2361.8 2361 2360.1 2359.2 2358.3 2357.4 2356.5 2355.7 2354.8 2353.9 2353 2352.1 2351.3 2350.4 2349.5 2348.6 2347.7 2346.8 2346 2345.1 2344.2 2343.3 2342.4 2341.6 2340.7 2339.8 2338.9 2338 2337.2 2336.3 2335.4 2334.5 2333.6 2332.7 2331.9 2331 2330.1 2329.2 2328.3 2327.5 2326.6 2325.7 2324.8 2323.9 2323 2322.2 2321.3 2320.4 2319.5 2318.6 2317.8 2316.9 2316 2315.1 2314.2 2313.4 2312.5 2311.6 2310.7 2309.8 2308.9 2308.1 2307.2 2306.3 2305.4 2304.5 2303.7 2302.8 2301.9 2301 2300.1 2299.2 2298.4 2297.5 2296.6 2295.7 2294.8 2294 2293.1 2292.2 2291.3 2290.4 2289.6 2288.7 2287.8 2286.9 2286 2285.1 2284.3 2283.4 2282.5 2281.6 2280.7 2279.9 2279 2278.1 2277.2 2276.3 2275.4 2274.6 2273.7 2272.8 2271.9 2271 2270.2 2269.3 2268.4 2267.5 2266.6 2265.8 2264.9 2264 2263.1 2262.2 2261.3 2260.5 2259.6 2258.7 2257.8 2256.9 2256.1 2255.2 2254.3 2253.4 2252.5 2251.6 2250.8 2249.9 2249 2248.1 2247.2 2246.4 2245.5 2244.6 2243.7 2242.8 2242 2241.1 2240.2 2239.3 2238.4 2237.5 2237.5 2238.4 2239.3 2240.2 2241.1 2242 2242.8 2243.7 2244.6 2245.5 2246.4 2247.2 2248.1 2249 2249.9 2250.8 2251.6 2252.5 2253.4 2254.3 2255.2 2256.1 2256.9 2257.8 2258.7 2259.6 2260.5 2261.3 2262.2 2263.1 2264 2264.9 2265.8 2266.6 2267.5 2268.4 2269.3 2270.2 2271 2271.9 2272.8 2273.7 2274.6 2275.4 2276.3 2277.2 2278.1 2279 2279.9 2280.7 2281.6 2282.5 2283.4 2284.3 2285.1 2286 2286.9 2287.8 2288.7 2289.6 2290.4 2291.3 2292.2 2293.1 2294 2294.8 2295.7 2296.6 2297.5 2298.4 2299.2 2300.1 2301 2301.9 2302.8 2303.7 2304.5 2305.4 2306.3 2307.2 2308.1 2308.9 2309.8 2310.7 2311.6 2312.5 2313.4 2314.2 2315.1 2316 2316.9 2317.8 2318.6 2319.5 2320.4 2321.3 2322.2 2323 2323.9 2324.8 2325.7 2326.6 2327.5 2328.3 2329.2 2330.1 2331 2331.9 2332.7 2333.6 2334.5 2335.4 2336.3 2337.2 2338 2338.9 2339.8 2340.7 2341.6 2342.4 2343.3 2344.2 2345.1 2346 2346.8 2347.7 2348.6 2349.5 2350.4 2351.3 2352.1 2353 2353.9 2354.8 2355.7 2356.5 2357.4 2358.3 2359.2 2360.1 2361 2361.8 2362.7 2363.6 2364.5 2365.4 2366.2 2367.1 2368 2368.9 2369.8 2370.6 2371.5 2372.4 2373.3 2374.2 2375.1 2375.9 2376.8 2377.7 2378.6 2379.5 2380.3 2381.2 2382.1 2383 2383.9 2384.8 2385.6 2386.5 2387.4 2388.3 2389.2 2390 2390.9 2391.8 2392.7 2393.6 2394.4 2395.3 2396.2 2397.1 2398 2398.9 2399.7 2400.6 2401.5 2402.4 2403.3 2404.1 2405 2405.9 2406.8 2407.7 2408.6 2409.4 2410.3 2411.2 2412.1 2413
2411.6 2410.7 2409.9 2409 2408.1 2407.2 2406.3 2405.4 2404.5 2403.6 2402.8 2401.9 2401 2400.1 2399.2 2398.3 2397.4 2396.5 2395.7 2394.8 2393.9 2393 2392.1 2391.2 2390.3 2389.5 2388.6 2387.7 2386.8 2385.9 2385 2384.1 2383.2 2382.4 2381.5 2380.6 2379.7 2378.8 2377.9 2377 2376.1 2375.3 2374.4 2373.5 2372.6 2371.7 2370.8 2369.9 2369 2368.2 2367.3 2366.4 2365.5 2364.6 2363.7 2362.8 2361.9 2361.1 2360.2 2359.3 2358.4 2357.5 2356.6 2355.7 2354.9 2354 2353.1 2352.2 2351.3 2350.4 2349.5 2348.6 2347.8 2346.9 2346 2345.1 2344.2 2343.3 2342.4 2341.5 2340.7 2339.8 2338.9 2338 2337.1 2336.2 2335.3 2334.4 2333.6 2332.7 2331.8 2330.9 2330 2329.1 2328.2 2327.4 2326.5 2325.6 2324.7 2323.8 2322.9 2322 2321.1 2320.3 2319.4 2318.5 2317.6 2316.7 2315.8 2314.9 2314 2313.2 2312.3 2311.4 2310.5 2309.6 2308.7 2307.8 2306.9 2306.1 2305.2 2304.3 2303.4 2302.5 2301.6 2300.7 2299.8 2299 2298.1 2297.2 2296.3 2295.4 2294.5 2293.6 2292.8 2291.9 2291 2290.1 2289.2 2288.3 2287.4 2286.5 2285.7 2284.8 2283.9 2283 2282.1 2281.2 2280.3 2279.4 2278.6 2277.7 2276.8 2275.9 2275 2274.1 2273.2 2272.3 2271.5 2270.6 2269.7 2268.8 2267.9 2267 2266.1 2265.3 2264.4 2263.5 2262.6 2261.7 2260.8 2259.9 2259 2258.2 2257.3 2256.4 2255.5 2254.6 2253.7 2252.8 2251.9 2251.1 2250.2 2249.3 2248.4 2247.5 2246.6 2245.7 2244.8 2244 2243.1 2242.2 2241.3 2240.4 2239.5 2238.6 2237.7 2236.9 2236 2235.1 2235.1 2236 2236.9 2237.7 2238.6 2239.5 2240.4 2241.3 2242.2 2243.1 2244 2244.8 2245.7 2246.6 2247.5 2248.4 2249.3 2250.2 2251.1 2251.9 2252.8 2253.7 2254.6 2255.5 2256.4 2257.3 2258.2 2259 2259.9 2260.8 2261.7 2262.6 2263.5 2264.4 2265.3 2266.1 2267 2267.9 2268.8 2269.7 2270.6 2271.5 2272.3 2273.2 2274.1 2275 2275.9 2276.8 2277.7 2278.6 2279.4 2280.3 2281.2 2282.1 2283 2283.9 2284.8 2285.7 2286.5 2287.4 2288.3 2289.2 2290.1 2291 2291.9 2292.8 2293.6 2294.5 2295.4 2296.3 2297.2 2298.1 2299 2299.8 2300.7 2301.6 2302.5 2303.4 2304.3 2305.2 2306.1 2306.9 2307.8 2308.7 2309.6 2310.5 2311.4 2312.3 2313.2 2314 2314.9 2315.8 2316.7 2317.6 2318.5 2319.4 2320.3 2321.1 2322 2322.9 2323.8 2324.7 2325.6 2326.5 2327.4 2328.2 2329.1 2330 2330.9 2331.8 2332.7 2333.6 2334.4 2335.3 2336.2 2337.1 2338 2338.9 2339.8 2340.7 2341.5 2342.4 2343.3 2344.2 2345.1 2346 2346.9 2347.8 2348.6 2349.5 2350.4 2351.3 2352.2 2353.1 2354 2354.9 2355.7 2356.6 2357.5 2358.4 2359.3 2360.2 2361.1 2361.9 2362.8 2363.7 2364.6 2365.5 2366.4 2367.3 2368.2 2369 2369.9 2370.8 2371.7 2372.6 2373.5 2374.4 2375.3 2376.1 2377 2377.9 2378.8 2379.7 2380.6 2381.5 2382.4 2383.2 2384.1 2385 2385.9 2386.8 2387.7 2388.6 2389.5 2390.3 2391.2 2392.1 2393 2393.9 2394.8 2395.7 2396.5 2397.4 2398.3 2399.2 2400.1 2401 2401.9 2402.8 2403.6 2404.5 2405.4 2406.3 2407.2 2408.1 2409 2409.9 2410.7 2411.6
2410.3 2409.4 2408.5 2407.6 2406.7 2405.8 2404.9 2404.1 2403.2 2402.3 2401.4 2400.5 2399.6 2398.7 2397.8 2396.9 2396 2395.1 2394.2 2393.3 2392.4 2391.6 2390.7 2389.8 2388.9 2388 2387.1 2386.2 2385.3 2384.4 2383.5 2382.6 2381.7 2380.8 2379.9 2379.1 2378.2 2377.3 2376.4 2375.5 2374.6 2373.7 2372.8 2371.9 2371 2370.1 2369.2 2368.3 2367.4 2366.6 2365.7 2364.8 2363.9 2363 2362.1 2361.2 2360.3 2359.4 2358.5 2357.6 2356.7 2355.8 2354.9 2354.1 2353.2 2352.3 2351.4 2350.5 2349.6 2348.7 2347.8 2346.9 2346 2345.1 2344.2 2343.3 2342.4 2341.6 2340.7 2339.8 2338.9 2338 2337.1 2336.2 2335.3 2334.4 2333.5 2332.6 2331.7 2330.8 2329.9 2329.1 2328.2 2327.3 2326.4 2325.5 2324.6 2323.7 2322.8 2321.9 2321 2320.1 2319.2 2318.3 2317.4 2316.6 2315.7 2314.8 2313.9 2313 2312.1 2311.2 2310.3 2309.4 2308.5 2307.6 2306.7 2305.8 2304.9 2304.1 2303.2 2302.3 2301.4 2300.5 2299.6 2298.7 2297.8 2296.9 2296 2295.1 2294.2 2293.3 2292.4 2291.6 2290.7 2289.8 2288.9 2288 2287.1 2286.2 2285.3 2284.4 2283.5 2282.6 2281.7 2280.8 2280 2279.1 2278.2 2277.3 2276.4 2275.5 2274.6 2273.7 2272.8 2271.9 2271 2270.1 2269.2 2268.3 2267.5 2266.6 2265.7 2264.8 2263.9 2263 2262.1 2261.2 2260.3 2259.4 2258.5 2257.6 2256.7 2255.8 2255 2254.1 2253.2 2252.3 2251.4 2250.5 2249.6 2248.7 2247.8 2246.9 2246 2245.1 2244.2 2243.3 2242.5 2241.6 2240.7 2239.8 2238.9 2238 2237.1 2236.2 2235.3 2234.4 2233.5 2232.6 2232.6 2233.5 2234.4 2235.3 2236.2 2237.1 2238 2238.9 2239.8 2240.7 2241.6 2242.5 2243.3 2244.2 2245.1 2246 2246.9 2247.8 2248.7 2249.6 2250.5 2251.4 2252.3 2253.2 2254.1 2255 2255.8 2256.7 2257.6 2258.5 2259.4 2260.3 2261.2 2262.1 2263 2263.9 2264.8 2265.7 2266.6 2267.5 2268.3 2269.2 2270.1 2271 2271.9 2272.8 2273.7 2274.6 2275.5 2276.4 2277.3 2278.2 2279.1 2280 2280.8 2281.7 2282.6 2283.5 2284.4 2285.3 2286.2 2287.1 2288 2288.9 2289.8 2290.7 2291.6 2292.4 2293.3 2294.2 2295.1 2296 2296.9 2297.8 2298.7 2299.6 2300.5 2301.4 2302.3 2303.2 2304.1 2304.9 2305.8 2306.7 2307.6 2308.5 2309.4 2310.3 2311.2 2312.1 2313 2313.9 2314.8 2315.7 2316.6 2317.4 2318.3 2319.2 2320.1 2321 2321.9 2322.8 2323.7 2324.6 2325.5 2326.4 2327.3 2328.2 2329.1 2329.9 2330.8 2331.7 2332.6 2333.5 2334.4 2335.3 2336.2 2337.1 2338 2338.9 2339.8 2340.7 2341.6 2342.4 2343.3 2344.2 2345.1 2346 2346.9 2347.8 2348.7 2349.6 2350.5 2351.4 2352.3 2353.2 2354.1 2354.9 2355.8 2356.7 2357.6 2358.5 2359.4 2360.3 2361.2 2362.1 2363 2363.9 2364.8 2365.7 2366.6 2367.4 2368.3 2369.2 2370.1 2371 2371.9 2372.8 2373.7 2374.6 2375.5 2376.4 2377.3 2378.2 2379.1 2379.9 2380.8 2381.7 2382.6 2383.5 2384.4 2385.3 2386.2 2387.1 2388 2388.9 2389.8 2390.7 2391.6 2392.4 2393.3 2394.2 2395.1 2396 2396.9 2397.8 2398.7 2399.6 2400.5 2401.4 2402.3 2403.2 2404.1 2404.9 2405.8 2406.7 2407.6 2408.5 2409.4 2410.3
2409 2408.1 2407.2 2406.3 2405.4 2404.5 2403.6 2402.7 2401.8 2400.9 2400 2399.1 2398.2 2397.3 2396.4 2395.5 2394.6 2393.7 2392.8 2391.9 2391 2390.1 2389.2 2388.3 2387.4 2386.5 2385.6 2384.7 2383.8 2382.9 2382 2381.1 2380.2 2379.3 2378.4 2377.5 2376.6 2375.7 2374.8 2373.9 2373 2372.1 2371.2 2370.3 2369.4 2368.5 2367.6 2366.7 2365.8 2364.9 2364 2363.2 2362.3 2361.4 2360.5 2359.6 2358.7 2357.8 2356.9 2356 2355.1 2354.2 2353.3 2352.4 2351.5 2350.6 2349.7 2348.8 2347.9 2347 2346.1 2345.2 2344.3 2343.4 2342.5 2341.6 2340.7 2339.8 2338.9 2338 2337.1 2336.2 2335.3 2334.4 2333.5 2332.6 2331.7 2330.8 2329.9 2329 2328.1 2327.2 2326.3 2325.4 2324.5 2323.6 2322.7 2321.8 2320.9 2320 2319.1 2318.2 2317.3 2316.4 2315.5 2314.6 2313.7 2312.8 2311.9 2311 2310.1 2309.2 2308.3 2307.4 2306.5 2305.6 2304.7 2303.9 2303 2302.1 2301.2 2300.3 2299.4 2298.5 2297.6 2296.7 2295.8 2294.9 2294 2293.1 2292.2 2291.3 2290.4 2289.5 2288.6 2287.7 2286.8 2285.9 2285 2284.1 2283.2 2282.3 2281.4 2280.5 2279.6 2278.7 2277.8 2276.9 2276 2275.1 2274.2 2273.3 2272.4 2271.5 2270.6 2269.7 2268.8 2267.9 2267 2266.1 2265.2 2264.3 2263.4 2262.5 2261.6 2260.7 2259.8 2258.9 2258 2257.1 2256.2 2255.3 2254.4 2253.5 2252.6 2251.7 2250.8 2249.9 2249 2248.1 2247.2 2246.3 2245.4 2244.6 2243.7 2242.8 2241.9 2241 2240.1 2239.2 2238.3 2237.4 2236.5 2235.6 2234.7 2233.8 2232.9 2232 2231.1 2230.2 2230.2 2231.1 2232 2232.9 2233.8 2234.7 2235.6 2236.5 2237.4 2238.3 2239.2 2240.1 2241 2241.9 2242.8 2243.7 2244.6 2245.4 2246.3 2247.2 2248.1 2249 2249.9 2250.8 2251.7 2252.6 2253.5 2254.4 2255.3 2256.2 2257.1 2258 2258.9 2259.8 2260.7 2261.6 2262.5 2263.4 2264.3 2265.2 2266.1 2267 2267.9 2268.8 2269.7 2270.6 2271.5 2272.4 2273.3 2274.2 2275.1 2276 2276.9 2277.8 2278.7 2279.6 2280.5 2281.4 2282.3 2283.2 2284.1 2285 2285.9 2286.8 2287.7 2288.6 2289.5 2290.4 2291.3 2292.2 2293.1 2294 2294.9 2295.8 2296.7 2297.6 2298.5 2299.4 2300.3 2301.2 2302.1 2303 2303.9 2304.7 2305.6 2306.5 2307.4 2308.3 2309.2 2310.1 2311 2311.9 2312.8 2313.7 2314.6 2315.5 2316.4 2317.3 2318.2 2319.1 2320 2320.9 2321.8 2322.7 2323.6 2324.5 2325.4 2326.3 2327.2 2328.1 2329 2329.9 2330.8 2331.7 2332.6 2333.5 2334.4 2335.3 2336.2 2337.1 2338 2338.9 2339.8 2340.7 2341.6 2342.5 2343.4 2344.3 2345.2 2346.1 2347 2347.9 2348.8 2349.7 2350.6 2351.5 2352.4 2353.3 2354.2 2355.1 2356 2356.9 2357.8 2358.7 2359.6 2360.5 2361.4 2362.3 2363.2 2364 2364.9 2365.8 2366.7 2367.6 2368.5 2369.4 2370.3 2371.2 2372.1 2373 2373.9 2374.8 2375.7 2376.6 2377.5 2378.4 2379.3 2380.2 2381.1 2382 2382.9 2383.8 2384.7 2385.6 2386.5 2387.4 2388.3 2389.2 2390.1 2391 2391.9 2392.8 2393.7 2394.6 2395.5 2396.4 2397.3 2398.2 2399.1 2400 2400.9 2401.8 2402.7 2403.6 2404.5 2405.4 2406.3 2407.2 2408.1 2409
2407.6 2406.7 2405.8 2404.9 2404 2403.1 2402.2 2401.3 2400.4 2399.5 2398.6 2397.7 2396.8 2395.9 2395 2394.1 2393.2 2392.3 2391.4 2390.5 2389.6 2388.7 2387.8 2386.8 2385.9 2385 2384.1 2383.2 2382.3 2381.4 2380.5 2379.6 2378.7 2377.8 2376.9 2376 2375.1 2374.2 2373.3 2372.4 2371.5 2370.6 2369.7 2368.8 2367.9 2367 2366.1 2365.1 2364.2 2363.3 2362.4 2361.5 2360.6 2359.7 2358.8 2357.9 2357 2356.1 2355.2 2354.3 2353.4 2352.5 2351.6 2350.7 2349.8 2348.9 2348 2347.1 2346.2 2345.3 2344.4 2343.4 2342.5 2341.6 2340.7 2339.8 2338.9 2338 2337.1 2336.2 2335.3 2334.4 2333.5 2332.6 2331.7 2330.8 2329.9 2329 2328.1 2327.2 2326.3 2325.4 2324.5 2323.6 2322.7 2321.8 2320.8 2319.9 2319 2318.1 2317.2 2316.3 2315.4 2314.5 2313.6 2312.7 2311.8 2310.9 2310 2309.1 2308.2 2307.3 2306.4 2305.5 2304.6 2303.7 2302.8 2301.9 2301 2300.1 2299.1 2298.2 2297.3 2296.4 2295.5 2294.6 2293.7 2292.8 2291.9 2291 2290.1 2289.2 2288.3 2287.4 2286.5 2285.6 2284.7 2283.8 2282.9 2282 2281.1 2280.2 2279.3 2278.4 2277.4 2276.5 2275.6 2274.7 2273.8 2272.9 2272 2271.1 2270.2 2269.3 2268.4 2267.5 2266.6 2265.7 2264.8 2263.9 2263 2262.1 2261.2 2260.3 2259.4 2258.5 2257.6 2256.7 2255.7 2254.8 2253.9 2253 2252.1 2251.2 2250.3 2249.4 2248.5 2247.6 2246.7 2245.8 2244.9 2244 2243.1 2242.2 2241.3 2240.4 2239.5 2238.6 2237.7 2236.8 2235.9 2235 2234 2233.1 2232.2 2231.3 2230.4 2229.5 2228.6 2227.7 2227.7 2228.6 2229.5 2230.4 2231.3 2232.2 2233.1 2234 2235 2235.9 2236.8 2237.7 2238.6 2239.5 2240.4 2241.3 2242.2 2243.1 2244 2244.9 2245.8 2246.7 2247.6 2248.5 2249.4 2250.3 2251.2 2252.1 2253 2253.9 2254.8 2255.7 2256.7 2257.6 2258.5 2259.4 2260.3 2261.2 2262.1 2263 2263.9 2264.8 2265.7 2266.6 2267.5 2268.4 2269.3 2270.2 2271.1 2272 2272.9 2273.8 2274.7 2275.6 2276.5 2277.4 2278.4 2279.3 2280.2 2281.1 2282 2282.9 2283.8 2284.7 2285.6 2286.5 2287.4 2288.3 2289.2 2290.1 2291 2291.9 2292.8 2293.7 2294.6 2295.5 2296.4 2297.3 2298.2 2299.1 2300.1 2301 2301.9 2302.8 2303.7 2304.6 2305.5 2306.4 2307.3 2308.2 2309.1 2310 2310.9 2311.8 2312.7 2313.6 2314.5 2315.4 2316.3 2317.2 2318.1 2319 2319.9 2320.8 2321.8 2322.7 2323.6 2324.5 2325.4 2326.3 2327.2 2328.1 2329 2329.9 2330.8 2331.7 2332.6 2333.5 2334.4 2335.3 2336.2 2337.1 2338 2338.9 2339.8 2340.7 2341.6 2342.5 2343.4 2344.4 2345.3 2346.2 2347.1 2348 2348.9 2349.8 2350.7 2351.6 2352.5 2353.4 2354.3 2355.2 2356.1 2357 2357.9 2358.8 2359.7 2360.6 2361.5 2362.4 2363.3 2364.2 2365.1 2366.1 2367 2367.9 2368.8 2369.7 2370.6 2371.5 2372.4 2373.3 2374.2 2375.1 2376 2376.9 2377.8 2378.7 2379.6 2380.5 2381.4 2382.3 2383.2 2384.1 2385 2385.9 2386.8 2387.8 2388.7 2389.6 2390.5 2391.4 2392.3 2393.2 2394.1 2395 2395.9 2396.8 2397.7 2398.6 2399.5 2400.4 2401.3 2402.2 2403.1 2404 2404.9 2405.8 2406.7 2407.6
2406.3 2405.4 2404.5 2403.6 2402.7 2401.8 2400.9 2399.9 2399 2398.1 2397.2 2396.3 2395.4 2394.5 2393.6 2392.7 2391.8 2390.8 2389.9 2389 2388.1 2387.2 2386.3 2385.4 2384.5 2383.6 2382.7 2381.8 2380.8 2379.9 2379 2378.1 2377.2 2376.3 2375.4 2374.5 2373.6 2372.7 2371.7 2370.8 2369.9 2369 2368.1 2367.2 2366.3 2365.4 2364.5 2363.6 2362.6 2361.7 2360.8 2359.9 2359 2358.1 2357.2 2356.3 2355.4 2354.5 2353.5 2352.6 2351.7 2350.8 2349.9 2349 2348.1 2347.2 2346.3 2345.4 2344.4 2343.5 2342.6 2341.7 2340.8 2339.9 2339 2338.1 2337.2 2336.3 2335.4 2334.4 2333.5 2332.6 2331.7 2330.8 2329.9 2329 2328.1 2327.2 2326.3 2325.3 2324.4 2323.5 2322.6 2321.7 2320.8 2319.9 2319 2318.1 2317.2 2316.2 2315.3 2314.4 2313.5 2312.6 2311.7 2310.8 2309.9 2309 2308.1 2307.1 2306.2 2305.3 2304.4 2303.5 2302.6 2301.7 2300.8 2299.9 2299 2298 2297.1 2296.2 2295.3 2294.4 2293.5 2292.6 2291.7 2290.8 2289.9 2289 2288 2287.1 2286.2 2285.3 2284.4 2283.5 2282.6 2281.7 2280.8 2279.9 2278.9 2278 2277.1 2276.2 2275.3 2274.4 2273.5 2272.6 2271.7 2270.8 2269.8 2268.9 2268 2267.1 2266.2 2265.3 2264.4 2263.5 2262.6 2261.7 2260.7 2259.8 2258.9 2258 2257.1 2256.2 2255.3 2254.4 2253.5 2252.6 2251.6 2250.7 2249.8 2248.9 2248 2247.1 2246.2 2245.3 2244.4 2243.5 2242.5 2241.6 2240.7 2239.8 2238.9 2238 2237.1 2236.2 2235.3 2234.4 2233.5 2232.5 2231.6 2230.7 2229.8 2228.9 2228 2227.1 2226.2 2225.3 2225.3 2226.2 2227.1 2228 2228.9 2229.8 2230.7 2231.6 2232.5 2233.5 2234.4 2235.3 2236.2 2237.1 2238 2238.9 2239.8 2240.7 2241.6 2242.5 2243.5 2244.4 2245.3 2246.2 2247.1 2248 2248.9 2249.8 2250.7 2251.6 2252.6 2253.5 2254.4 2255.3 2256.2 2257.1 2258 2258.9 2259.8 2260.7 2261.7 2262.6 2263.5 2264.4 2265.3 2266.2 2267.1 2268 2268.9 2269.8 2270.8 2271.7 2272.6 2273.5 2274.4 2275.3 2276.2 2277.1 2278 2278.9 2279.9 2280.8 2281.7 2282.6 2283.5 2284.4 2285.3 2286.2 2287.1 2288 2289 2289.9 2290.8 2291.7 2292.6 2293.5 2294.4 2295.3 2296.2 2297.1 2298 2299 2299.9 2300.8 2301.7 2302.6 2303.5 2304.4 2305.3 2306.2 2307.1 2308.1 2309 2309.9 2310.8 2311.7 2312.6 2313.5 2314.4 2315.3 2316.2 2317.2 2318.1 2319 2319.9 2320.8 2321.7 2322.6 2323.5 2324.4 2325.3 2326.3 2327.2 2328.1 2329 2329.9 2330.8 2331.7 2332.6 2333.5 2334.4 2335.4 2336.3 2337.2 2338.1 2339 2339.9 2340.8 2341.7 2342.6 2343.5 2344.4 2345.4 2346.3 2347.2 2348.1 2349 2349.9 2350.8 2351.7 2352.6 2353.5 2354.5 2355.4 2356.3 2357.2 2358.1 2359 2359.9 2360.8 2361.7 2362.6 2363.6 2364.5 2365.4 2366.3 2367.2 2368.1 2369 2369.9 2370.8 2371.7 2372.7 2373.6 2374.5 2375.4 2376.3 2377.2 2378.1 2379 2379.9 2380.8 2381.8 2382.7 2383.6 2384.5 2385.4 2386.3 2387.2 2388.1 2389 2389.9 2390.8 2391.8 2392.7 2393.6 2394.5 2395.4 2396.3 2397.2 2398.1 2399 2399.9 2400.9 2401.8 2402.7 2403.6 2404.5 2405.4 2406.3
2405 2404.1 2403.2 2402.2 2401.3 2400.4 2399.5 2398.6 2397.7 2396.7 2395.8 2394.9 2394 2393.1 2392.2 2391.3 2390.3 2389.4 2388.5 2387.6 2386.7 2385.8 2384.8 2383.9 2383 2382.1 2381.2 2380.3 2379.4 2378.4 2377.5 2376.6 2375.7 2374.8 2373.9 2372.9 2372 2371.1 2370.2 2369.3 2368.4 2367.5 2366.5 2365.6 2364.7 2363.8 2362.9 2362 2361 2360.1 2359.2 2358.3 2357.4 2356.5 2355.6 2354.6 2353.7 2352.8 2351.9 2351 2350.1 2349.1 2348.2 2347.3 2346.4 2345.5 2344.6 2343.7 2342.7 2341.8 2340.9 2340 2339.1 2338.2 2337.2 2336.3 2335.4 2334.5 2333.6 2332.7 2331.7 2330.8 2329.9 2329 2328.1 2327.2 2326.3 2325.3 2324.4 2323.5 2322.6 2321.7 2320.8 2319.8 2318.9 2318 2317.1 2316.2 2315.3 2314.4 2313.4 2312.5 2311.6 2310.7 2309.8 2308.9 2307.9 2307 2306.1 2305.2 2304.3 2303.4 2302.5 2301.5 2300.6 2299.7 2298.8 2297.9 2297 2296 2295.1 2294.2 2293.3 2292.4 2291.5 2290.6 2289.6 2288.7 2287.8 2286.9 2286 2285.1 2284.1 2283.2 2282.3 2281.4 2280.5 2279.6 2278.7 2277.7 2276.8 2275.9 2275 2274.1 2273.2 2272.2 2271.3 2270.4 2269.5 2268.6 2267.7 2266.8 2265.8 2264.9 2264 2263.1 2262.2 2261.3 2260.3 2259.4 2258.5 2257.6 2256.7 2255.8 2254.8 2253.9 2253 2252.1 2251.2 2250.3 2249.4 2248.4 2247.5 2246.6 2245.7 2244.8 2243.9 2242.9 2242 2241.1 2240.2 2239.3 2238.4 2237.5 2236.5 2235.6 2234.7 2233.8 2232.9 2232 2231 2230.1 2229.2 2228.3 2227.4 2226.5 2225.6 2224.6 2223.7 2222.8 2222.8 2223.7 2224.6 2225.6 2226.5 2227.4 2228.3 2229.2 2230.1 2231 2232 2232.9 2233.8 2234.7 2235.6 2236.5 2237.5 2238.4 2239.3 2240.2 2241.1 2242 2242.9 2243.9 2244.8 2245.7 2246.6 2247.5 2248.4 2249.4 2250.3 2251.2 2252.1 2253 2253.9 2254.8 2255.8 2256.7 2257.6 2258.5 2259.4 2260.3 2261.3 2262.2 2263.1 2264 2264.9 2265.8 2266.8 2267.7 2268.6 2269.5 2270.4 2271.3 2272.2 2273.2 2274.1 2275 2275.9 2276.8 2277.7 2278.7 2279.6 2280.5 2281.4 2282.3 2283.2 2284.1 2285.1 2286 2286.9 2287.8 2288.7 2289.6 2290.6 2291.5 2292.4 2293.3 2294.2 2295.1 2296 2297 2297.9 2298.8 2299.7 2300.6 2301.5 2302.5 2303.4 2304.3 2305.2 2306.1 2307 2307.9 2308.9 2309.8 2310.7 2311.6 2312.5 2313.4 2314.4 2315.3 2316.2 2317.1 2318 2318.9 2319.8 2320.8 2321.7 2322.6 2323.5 2324.4 2325.3 2326.3 2327.2 2328.1 2329 2329.9 2330.8 2331.7 2332.7 2333.6 2334.5 2335.4 2336.3 2337.2 2338.2 2339.1 2340 2340.9 2341.8 2342.7 2343.7 2344.6 2345.5 2346.4 2347.3 2348.2 2349.1 2350.1 2351 2351.9 2352.8 2353.7 2354.6 2355.6 2356.5 2357.4 2358.3 2359.2 2360.1 2361 2362 2362.9 2363.8 2364.7 2365.6 2366.5 2367.5 2368.4 2369.3 2370.2 2371.1 2372 2372.9 2373.9 2374.8 2375.7 2376.6 2377.5 2378.4 2379.4 2380.3 2381.2 2382.1 2383 2383.9 2384.8 2385.8 2386.7 2387.6 2388.5 2389.4 2390.3 2391.3 2392.2 2393.1 2394 2394.9 2395.8 2396.7 2397.7 2398.6 2399.5 2400.4 2401.3 2402.2 2403.2 2404.1 2405
2403.7 2402.7 2401.8 2400.9 2400 2399.1 2398.1 2397.2 2396.3 2395.4 2394.4 2393.5 2392.6 2391.7 2390.8 2389.8 2388.9 2388 2387.1 2386.2 2385.2 2384.3 2383.4 2382.5 2381.6 2380.6 2379.7 2378.8 2377.9 2376.9 2376 2375.1 2374.2 2373.3 2372.3 2371.4 2370.5 2369.6 2368.7 2367.7 2366.8 2365.9 2365 2364 2363.1 2362.2 2361.3 2360.4 2359.4 2358.5 2357.6 2356.7 2355.8 2354.8 2353.9 2353 2352.1 2351.2 2350.2 2349.3 2348.4 2347.5 2346.5 2345.6 2344.7 2343.8 2342.9 2341.9 2341 2340.1 2339.2 2338.3 2337.3 2336.4 2335.5 2334.6 2333.7 2332.7 2331.8 2330.9 2330 2329 2328.1 2327.2 2326.3 2325.4 2324.4 2323.5 2322.6 2321.7 2320.8 2319.8 2318.9 2318 2317.1 2316.2 2315.2 2314.3 2313.4 2312.5 2311.5 2310.6 2309.7 2308.8 2307.9 2306.9 2306 2305.1 2304.2 2303.3 2302.3 2301.4 2300.5 2299.6 2298.6 2297.7 2296.8 2295.9 2295 2294 2293.1 2292.2 2291.3 2290.4 2289.4 2288.5 2287.6 2286.7 2285.8 2284.8 2283.9 2283 2282.1 2281.1 2280.2 2279.3 2278.4 2277.5 2276.5 2275.6 2274.7 2273.8 2272.9 2271.9 2271 2270.1 2269.2 2268.3 2267.3 2266.4 2265.5 2264.6 2263.6 2262.7 2261.8 2260.9 2260 2259 2258.1 2257.2 2256.3 2255.4 2254.4 2253.5 2252.6 2251.7 2250.7 2249.8 2248.9 2248 2247.1 2246.1 2245.2 2244.3 2243.4 2242.5 2241.5 2240.6 2239.7 2238.8 2237.9 2236.9 2236 2235.1 2234.2 2233.2 2232.3 2231.4 2230.5 2229.6 2228.6 2227.7 2226.8 2225.9 2225 2224 2223.1 2222.2 2221.3 2220.4 2220.4 2221.3 2222.2 2223.1 2224 2225 2225.9 2226.8 2227.7 2228.6 2229.6 2230.5 2231.4 2232.3 2233.2 2234.2 2235.1 2236 2236.9 2237.9 2238.8 2239.7 2240.6 2241.5 2242.5 2243.4 2244.3 2245.2 2246.1 2247.1 2248 2248.9 2249.8 2250.7 2251.7 2252.6 2253.5 2254.4 2255.4 2256.3 2257.2 2258.1 2259 2260 2260.9 2261.8 2262.7 2263.6 2264.6 2265.5 2266.4 2267.3 2268.3 2269.2 2270.1 2271 2271.9 2272.9 2273.8 2274.7 2275.6 2276.5 2277.5 2278.4 2279.3 2280.2 2281.1 2282.1 2283 2283.9 2284.8 2285.8 2286.7 2287.6 2288.5 2289.4 2290.4 2291.3 2292.2 2293.1 2294 2295 2295.9 2296.8 2297.7 2298.6 2299.6 2300.5 2301.4 2302.3 2303.3 2304.2 2305.1 2306 2306.9 2307.9 2308.8 2309.7 2310.6 2311.5 2312.5 2313.4 2314.3 2315.2 2316.2 2317.1 2318 2318.9 2319.8 2320.8 2321.7 2322.6 2323.5 2324.4 2325.4 2326.3 2327.2 2328.1 2329 2330 2330.9 2331.8 2332.7 2333.7 2334.6 2335.5 2336.4 2337.3 2338.3 2339.2 2340.1 2341 2341.9 2342.9 2343.8 2344.7 2345.6 2346.5 2347.5 2348.4 2349.3 2350.2 2351.2 2352.1 2353 2353.9 2354.8 2355.8 2356.7 2357.6 2358.5 2359.4 2360.4 2361.3 2362.2 2363.1 2364 2365 2365.9 2366.8 2367.7 2368.7 2369.6 2370.5 2371.4 2372.3 2373.3 2374.2 2375.1 2376 2376.9 2377.9 2378.8 2379.7 2380.6 2381.6 2382.5 2383.4 2384.3 2385.2 2386.2 2387.1 2388 2388.9 2389.8 2390.8 2391.7 2392.6 2393.5 2394.4 2395.4 2396.3 2397.2 2398.1 2399.1 2400 2400.9 2401.8 2402.7 2403.7
2402.3 2401.4 2400.5 2399.6 2398.6 2397.7 2396.8 2395.8 2394.9 2394 2393.1 2392.1 2391.2 2390.3 2389.4 2388.4 2387.5 2386.6 2385.6 2384.7 2383.8 2382.9 2381.9 2381 2380.1 2379.2 2378.2 2377.3 2376.4 2375.5 2374.5 2373.6 2372.7 2371.7 2370.8 2369.9 2369 2368 2367.1 2366.2 2365.3 2364.3 2363.4 2362.5 2361.6 2360.6 2359.7 2358.8 2357.8 2356.9 2356 2355.1 2354.1 2353.2 2352.3 2351.4 2350.4 2349.5 2348.6 2347.6 2346.7 2345.8 2344.9 2343.9 2343 2342.1 2341.2 2340.2 2339.3 2338.4 2337.5 2336.5 2335.6 2334.7 2333.7 2332.8 2331.9 2331 2330 2329.1 2328.2 2327.3 2326.3 2325.4 2324.5 2323.6 2322.6 2321.7 2320.8 2319.8 2318.9 2318 2317.1 2316.1 2315.2 2314.3 2313.4 2312.4 2311.5 2310.6 2309.6 2308.7 2307.8 2306.9 2305.9 2305 2304.1 2303.2 2302.2 2301.3 2300.4 2299.5 2298.5 2297.6 2296.7 2295.7 2294.8 2293.9 2293 2292 2291.1 2290.2 2289.3 2288.3 2287.4 2286.5 2285.6 2284.6 2283.7 2282.8 2281.8 2280.9 2280 2279.1 2278.1 2277.2 2276.3 2275.4 2274.4 2273.5 2272.6 2271.6 2270.7 2269.8 2268.9 2267.9 2267 2266.1 2265.2 2264.2 2263.3 2262.4 2261.5 2260.5 2259.6 2258.7 2257.7 2256.8 2255.9 2255 2254 2253.1 2252.2 2251.3 2250.3 2249.4 2248.5 2247.6 2246.6 2245.7 2244.8 2243.8 2242.9 2242 2241.1 2240.1 2239.2 2238.3 2237.4 2236.4 2235.5 2234.6 2233.7 2232.7 2231.8 2230.9 2229.9 2229 2228.1 2227.2 2226.2 2225.3 2224.4 2223.5 2222.5 2221.6 2220.7 2219.7 2218.8 2217.9 2217.9 2218.8 2219.7 2220.7 2221.6 2222.5 2223.5 2224.4 2225.3 2226.2 2227.2 2228.1 2229 2229.9 2230.9 2231.8 2232.7 2233.7 2234.6 2235.5 2236.4 2237.4 2238.3 2239.2 2240.1 2241.1 2242 2242.9 2243.8 2244.8 2245.7 2246.6 2247.6 2248.5 2249.4 2250.3 2251.3 2252.2 2253.1 2254 2255 2255.9 2256.8 2257.7 2258.7 2259.6 2260.5 2261.5 2262.4 2263.3 2264.2 2265.2 2266.1 2267 2267.9 2268.9 2269.8 2270.7 2271.6 2272.6 2273.5 2274.4 2275.4 2276.3 2277.2 2278.1 2279.1 2280 2280.9 2281.8 2282.8 2283.7 2284.6 2285.6 2286.5 2287.4 2288.3 2289.3 2290.2 2291.1 2292 2293 2293.9 2294.8 2295.7 2296.7 2297.6 2298.5 2299.5 2300.4 2301.3 2302.2 2303.2 2304.1 2305 2305.9 2306.9 2307.8 2308.7 2309.6 2310.6 2311.5 2312.4 2313.4 2314.3 2315.2 2316.1 2317.1 2318 2318.9 2319.8 2320.8 2321.7 2322.6 2323.6 2324.5 2325.4 2326.3 2327.3 2328.2 2329.1 2330 2331 2331.9 2332.8 2333.7 2334.7 2335.6 2336.5 2337.5 2338.4 2339.3 2340.2 2341.2 2342.1 2343 2343.9 2344.9 2345.8 2346.7 2347.6 2348.6 2349.5 2350.4 2351.4 2352.3 2353.2 2354.1 2355.1 2356 2356.9 2357.8 2358.8 2359.7 2360.6 2361.6 2362.5 2363.4 2364.3 2365.3 2366.2 2367.1 2368 2369 2369.9 2370.8 2371.7 2372.7 2373.6 2374.5 2375.5 2376.4 2377.3 2378.2 2379.2 2380.1 2381 2381.9 2382.9 2383.8 2384.7 2385.6 2386.6 2387.5 2388.4 2389.4 2390.3 2391.2 2392.1 2393.1 2394 2394.9 2395.8 2396.8 2397.7 2398.6 2399.6 2400.5 2401.4 2402.3
2401 2400.1 2399.1 2398.2 2397.3 2396.3 2395.4 2394.5 2393.5 2392.6 2391.7 2390.7 2389.8 2388.9 2387.9 2387 2386.1 2385.2 2384.2 2383.3 2382.4 2381.4 2380.5 2379.6 2378.6 2377.7 2376.8 2375.8 2374.9 2374 2373 2372.1 2371.2 2370.2 2369.3 2368.4 2367.4 2366.5 2365.6 2364.6 2363.7 2362.8 2361.8 2360.9 2360 2359 2358.1 2357.2 2356.2 2355.3 2354.4 2353.4 2352.5 2351.6 2350.6 2349.7 2348.8 2347.9 2346.9 2346 2345.1 2344.1 2343.2 2342.3 2341.3 2340.4 2339.5 2338.5 2337.6 2336.7 2335.7 2334.8 2333.9 2332.9 2332 2331.1 2330.1 2329.2 2328.3 2327.3 2326.4 2325.5 2324.5 2323.6 2322.7 2321.7 2320.8 2319.9 2318.9 2318 2317.1 2316.1 2315.2 2314.3 2313.3 2312.4 2311.5 2310.6 2309.6 2308.7 2307.8 2306.8 2305.9 2305 2304 2303.1 2302.2 2301.2 2300.3 2299.4 2298.4 2297.5 2296.6 2295.6 2294.7 2293.8 2292.8 2291.9 2291 2290 2289.1 2288.2 2287.2 2286.3 2285.4 2284.4 2283.5 2282.6 2281.6 2280.7 2279.8 2278.8 2277.9 2277 2276 2275.1 2274.2 2273.3 2272.3 2271.4 2270.5 2269.5 2268.6 2267.7 2266.7 2265.8 2264.9 2263.9 2263 2262.1 2261.1 2260.2 2259.3 2258.3 2257.4 2256.5 2255.5 2254.6 2253.7 2252.7 2251.8 2250.9 2249.9 2249 2248.1 2247.1 2246.2 2245.3 2244.3 2243.4 2242.5 2241.5 2240.6 2239.7 2238.8 2237.8 2236.9 2236 2235 2234.1 2233.2 2232.2 2231.3 2230.4 2229.4 2228.5 2227.6 2226.6 2225.7 2224.8 2223.8 2222.9 2222 2221 2220.1 2219.2 2218.2 2217.3 2216.4 2215.4 2215.4 2216.4 2217.3 2218.2 2219.2 2220.1 2221 2222 2222.9 2223.8 2224.8 2225.7 2226.6 2227.6 2228.5 2229.4 2230.4 2231.3 2232.2 2233.2 2234.1 2235 2236 2236.9 2237.8 2238.8 2239.7 2240.6 2241.5 2242.5 2243.4 2244.3 2245.3 2246.2 2247.1 2248.1 2249 2249.9 2250.9 2251.8 2252.7 2253.7 2254.6 2255.5 2256.5 2257.4 2258.3 2259.3 2260.2 2261.1 2262.1 2263 2263.9 2264.9 2265.8 2266.7 2267.7 2268.6 2269.5 2270.5 2271.4 2272.3 2273.3 2274.2 2275.1 2276 2277 2277.9 2278.8 2279.8 2280.7 2281.6 2282.6 2283.5 2284.4 2285.4 2286.3 2287.2 2288.2 2289.1 2290 2291 2291.9 2292.8 2293.8 2294.7 2295.6 2296.6 2297.5 2298.4 2299.4 2300.3 2301.2 2302.2 2303.1 2304 2305 2305.9 2306.8 2307.8 2308.7 2309.6 2310.6 2311.5 2312.4 2313.3 2314.3 2315.2 2316.1 2317.1 2318 2318.9 2319.9 2320.8 2321.7 2322.7 2323.6 2324.5 2325.5 2326.4 2327.3 2328.3 2329.2 2330.1 2331.1 2332 2332.9 2333.9 2334.8 2335.7 2336.7 2337.6 2338.5 2339.5 2340.4 2341.3 2342.3 2343.2 2344.1 2345.1 2346 2346.9 2347.9 2348.8 2349.7 2350.6 2351.6 2352.5 2353.4 2354.4 2355.3 2356.2 2357.2 2358.1 2359 2360 2360.9 2361.8 2362.8 2363.7 2364.6 2365.6 2366.5 2367.4 2368.4 2369.3 2370.2 2371.2 2372.1 2373 2374 2374.9 2375.8 2376.8 2377.7 2378.6 2379.6 2380.5 2381.4 2382.4 2383.3 2384.2 2385.2 2386.1 2387 2387.9 2388.9 2389.8 2390.7 2391.7 2392.6 2393.5 2394.5 2395.4 2396.3 2397.3 2398.2 2399.1 2400.1 2401
2399.7 2398.7 2397.8 2396.9 2395.9 2395 2394 2393.1 2392.2 2391.2 2390.3 2389.4 2388.4 2387.5 2386.5 2385.6 2384.7 2383.7 2382.8 2381.8 2380.9 2380 2379 2378.1 2377.2 2376.2 2375.3 2374.3 2373.4 2372.5 2371.5 2370.6 2369.7 2368.7 2367.8 2366.8 2365.9 2365 2364 2363.1 2362.1 2361.2 2360.3 2359.3 2358.4 2357.5 2356.5 2355.6 2354.6 2353.7 2352.8 2351.8 2350.9 2350 2349 2348.1 2347.1 2346.2 2345.3 2344.3 2343.4 2342.4 2341.5 2340.6 2339.6 2338.7 2337.8 2336.8 2335.9 2334.9 2334 2333.1 2332.1 2331.2 2330.3 2329.3 2328.4 2327.4 2326.5 2325.6 2324.6 2323.7 2322.7 2321.8 2320.9 2319.9 2319 2318.1 2317.1 2316.2 2315.2 2314.3 2313.4 2312.4 2311.5 2310.5 2309.6 2308.7 2307.7 2306.8 2305.9 2304.9 2304 2303 2302.1 2301.2 2300.2 2299.3 2298.4 2297.4 2296.5 2295.5 2294.6 2293.7 2292.7 2291.8 2290.8 2289.9 2289 2288 2287.1 2286.2 2285.2 2284.3 2283.3 2282.4 2281.5 2280.5 2279.6 2278.7 2277.7 2276.8 2275.8 2274.9 2274 2273 2272.1 2271.1 2270.2 2269.3 2268.3 2267.4 2266.5 2265.5 2264.6 2263.6 2262.7 2261.8 2260.8 2259.9 2259 2258 2257.1 2256.1 2255.2 2254.3 2253.3 2252.4 2251.4 2250.5 2249.6 2248.6 2247.7 2246.8 2245.8 2244.9 2243.9 2243 2242.1 2241.1 2240.2 2239.3 2238.3 2237.4 2236.4 2235.5 2234.6 2233.6 2232.7 2231.7 2230.8 2229.9 2228.9 2228 2227.1 2226.1 2225.2 2224.2 2223.3 2222.4 2221.4 2220.5 2219.5 2218.6 2217.7 2216.7 2215.8 2214.9 2213.9 2213 2213 2213.9 2214.9 2215.8 2216.7 2217.7 2218.6 2219.5 2220.5 2221.4 2222.4 2223.3 2224.2 2225.2 2226.1 2227.1 2228 2228.9 2229.9 2230.8 2231.7 2232.7 2233.6 2234.6 2235.5 2236.4 2237.4 2238.3 2239.3 2240.2 2241.1 2242.1 2243 2243.9 2244.9 2245.8 2246.8 2247.7 2248.6 2249.6 2250.5 2251.4 2252.4 2253.3 2254.3 2255.2 2256.1 2257.1 2258 2259 2259.9 2260.8 2261.8 2262.7 2263.6 2264.6 2265.5 2266.5 2267.4 2268.3 2269.3 2270.2 2271.1 2272.1 2273 2274 2274.9 2275.8 2276.8 2277.7 2278.7 2279.6 2280.5 2281.5 2282.4 2283.3 2284.3 2285.2 2286.2 2287.1 2288 2289 2289.9 2290.8 2291.8 2292.7 2293.7 2294.6 2295.5 2296.5 2297.4 2298.4 2299.3 2300.2 2301.2 2302.1 2303 2304 2304.9 2305.9 2306.8 2307.7 2308.7 2309.6 2310.5 2311.5 2312.4 2313.4 2314.3 2315.2 2316.2 2317.1 2318.1 2319 2319.9 2320.9 2321.8 2322.7 2323.7 2324.6 2325.6 2326.5 2327.4 2328.4 2329.3 2330.3 2331.2 2332.1 2333.1 2334 2334.9 2335.9 2336.8 2337.8 2338.7 2339.6 2340.6 2341.5 2342.4 2343.4 2344.3 2345.3 2346.2 2347.1 2348.1 2349 2350 2350.9 2351.8 2352.8 2353.7 2354.6 2355.6 2356.5 2357.5 2358.4 2359.3 2360.3 2361.2 2362.1 2363.1 2364 2365 2365.9 2366.8 2367.8 2368.7 2369.7 2370.6 2371.5 2372.5 2373.4 2374.3 2375.3 2376.2 2377.2 2378.1 2379 2380 2380.9 2381.8 2382.8 2383.7 2384.7 2385.6 2386.5 2387.5 2388.4 2389.4 2390.3 2391.2 2392.2 2393.1 2394 2395 2395.9 2396.9 2397.8 2398.7 2399.7
2398.3 2397.4 2396.5 2395.5 2394.6 2393.6 2392.7 2391.7 2390.8 2389.9 2388.9 2388 2387 2386.1 2385.1 2384.2 2383.2 2382.3 2381.4 2380.4 2379.5 2378.5 2377.6 2376.6 2375.7 2374.8 2373.8 2372.9 2371.9 2371 2370 2369.1 2368.1 2367.2 2366.3 2365.3 2364.4 2363.4 2362.5 2361.5 2360.6 2359.6 2358.7 2357.8 2356.8 2355.9 2354.9 2354 2353 2352.1 2351.2 2350.2 2349.3 2348.3 2347.4 2346.4 2345.5 2344.5 2343.6 2342.7 2341.7 2340.8 2339.8 2338.9 2337.9 2337 2336.1 2335.1 2334.2 2333.2 2332.3 2331.3 2330.4 2329.4 2328.5 2327.6 2326.6 2325.7 2324.7 2323.8 2322.8 2321.9 2321 2320 2319.1 2318.1 2317.2 2316.2 2315.3 2314.3 2313.4 2312.5 2311.5 2310.6 2309.6 2308.7 2307.7 2306.8 2305.9 2304.9 2304 2303 2302.1 2301.1 2300.2 2299.2 2298.3 2297.4 2296.4 2295.5 2294.5 2293.6 2292.6 2291.7 2290.8 2289.8 2288.9 2287.9 2287 2286 2285.1 2284.1 2283.2 2282.3 2281.3 2280.4 2279.4 2278.5 2277.5 2276.6 2275.6 2274.7 2273.8 2272.8 2271.9 2270.9 2270 2269 2268.1 2267.2 2266.2 2265.3 2264.3 2263.4 2262.4 2261.5 2260.5 2259.6 2258.7 2257.7 2256.8 2255.8 2254.9 2253.9 2253 2252.1 2251.1 2250.2 2249.2 2248.3 2247.3 2246.4 2245.4 2244.5 2243.6 2242.6 2241.7 2240.7 2239.8 2238.8 2237.9 2237 2236 2235.1 2234.1 2233.2 2232.2 2231.3 2230.3 2229.4 2228.5 2227.5 2226.6 2225.6 2224.7 2223.7 2222.8 2221.9 2220.9 2220 2219 2218.1 2217.1 2216.2 2215.2 2214.3 2213.4 2212.4 2211.5 2210.5 2210.5 2211.5 2212.4 2213.4 2214.3 2215.2 2216.2 2217.1 2218.1 2219 2220 2220.9 2221.9 2222.8 2223.7 2224.7 2225.6 2226.6 2227.5 2228.5 2229.4 2230.3 2231.3 2232.2 2233.2 2234.1 2235.1 2236 2237 2237.9 2238.8 2239.8 2240.7 2241.7 2242.6 2243.6 2244.5 2245.4 2246.4 2247.3 2248.3 2249.2 2250.2 2251.1 2252.1 2253 2253.9 2254.9 2255.8 2256.8 2257.7 2258.7 2259.6 2260.5 2261.5 2262.4 2263.4 2264.3 2265.3 2266.2 2267.2 2268.1 2269 2270 2270.9 2271.9 2272.8 2273.8 2274.7 2275.6 2276.6 2277.5 2278.5 2279.4 2280.4 2281.3 2282.3 2283.2 2284.1 2285.1 2286 2287 2287.9 2288.9 2289.8 2290.8 2291.7 2292.6 2293.6 2294.5 2295.5 2296.4 2297.4 2298.3 2299.2 2300.2 2301.1 2302.1 2303 2304 2304.9 2305.9 2306.8 2307.7 2308.7 2309.6 2310.6 2311.5 2312.5 2313.4 2314.3 2315.3 2316.2 2317.2 2318.1 2319.1 2320 2321 2321.9 2322.8 2323.8 2324.7 2325.7 2326.6 2327.6 2328.5 2329.4 2330.4 2331.3 2332.3 2333.2 2334.2 2335.1 2336.1 2337 2337.9 2338.9 2339.8 2340.8 2341.7 2342.7 2343.6 2344.5 2345.5 2346.4 2347.4 2348.3 2349.3 2350.2 2351.2 2352.1 2353 2354 2354.9 2355.9 2356.8 2357.8 2358.7 2359.6 2360.6 2361.5 2362.5 2363.4 2364.4 2365.3 2366.3 2367.2 2368.1 2369.1 2370 2371 2371.9 2372.9 2373.8 2374.8 2375.7 2376.6 2377.6 2378.5 2379.5 2380.4 2381.4 2382.3 2383.2 2384.2 2385.1 2386.1 2387 2388 2388.9 2389.9 2390.8 2391.7 2392.7 2393.6 2394.6 2395.5 2396.5 2397.4 2398.3
2397 2396.1 2395.1 2394.2 2393.2 2392.3 2391.3 2390.4 2389.4 2388.5 2387.5 2386.6 2385.6 2384.7 2383.7 2382.8 2381.8 2380.9 2379.9 2379 2378 2377.1 2376.1 2375.2 2374.2 2373.3 2372.3 2371.4 2370.4 2369.5 2368.5 2367.6 2366.6 2365.7 2364.7 2363.8 2362.8 2361.9 2360.9 2360 2359 2358.1 2357.1 2356.2 2355.2 2354.3 2353.3 2352.4 2351.4 2350.5 2349.5 2348.6 2347.6 2346.7 2345.7 2344.8 2343.8 2342.9 2341.9 2341 2340 2339.1 2338.1 2337.2 2336.3 2335.3 2334.4 2333.4 2332.5 2331.5 2330.6 2329.6 2328.7 2327.7 2326.8 2325.8 2324.9 2323.9 2323 2322 2321.1 2320.1 2319.2 2318.2 2317.3 2316.3 2315.4 2314.4 2313.5 2312.5 2311.6 2310.6 2309.7 2308.7 2307.8 2306.8 2305.9 2304.9 2304 2303 2302.1 2301.1 2300.2 2299.2 2298.3 2297.3 2296.4 2295.4 2294.5 2293.5 2292.6 2291.6 2290.7 2289.7 2288.8 2287.8 2286.9 2285.9 2285 2284 2283.1 2282.1 2281.2 2280.2 2279.3 2278.3 2277.4 2276.4 2275.5 2274.5 2273.6 2272.6 2271.7 2270.7 2269.8 2268.8 2267.9 2266.9 2266 2265 2264.1 2263.1 2262.2 2261.2 2260.3 2259.3 2258.4 2257.4 2256.5 2255.5 2254.6 2253.6 2252.7 2251.7 2250.8 2249.8 2248.9 2247.9 2247 2246 2245.1 2244.2 2243.2 2242.3 2241.3 2240.4 2239.4 2238.5 2237.5 2236.6 2235.6 2234.7 2233.7 2232.8 2231.8 2230.9 2229.9 2229 2228 2227.1 2226.1 2225.2 2224.2 2223.3 2222.3 2221.4 2220.4 2219.5 2218.5 2217.6 2216.6 2215.7 2214.7 2213.8 2212.8 2211.9 2210.9 2210 2209 2208.1 2208.1 2209 2210 2210.9 2211.9 2212.8 2213.8 2214.7 2215.7 2216.6 2217.6 2218.5 2219.5 2220.4 2221.4 2222.3 2223.3 2224.2 2225.2 2226.1 2227.1 2228 2229 2229.9 2230.9 2231.8 2232.8 2233.7 2234.7 2235.6 2236.6 2237.5 2238.5 2239.4 2240.4 2241.3 2242.3 2243.2 2244.2 2245.1 2246 2247 2247.9 2248.9 2249.8 2250.8 2251.7 2252.7 2253.6 2254.6 2255.5 2256.5 2257.4 2258.4 2259.3 2260.3 2261.2 2262.2 2263.1 2264.1 2265 2266 2266.9 2267.9 2268.8 2269.8 2270.7 2271.7 2272.6 2273.6 2274.5 2275.5 2276.4 2277.4 2278.3 2279.3 2280.2 2281.2 2282.1 2283.1 2284 2285 2285.9 2286.9 2287.8 2288.8 2289.7 2290.7 2291.6 2292.6 2293.5 2294.5 2295.4 2296.4 2297.3 2298.3 2299.2 2300.2 2301.1 2302.1 2303 2304 2304.9 2305.9 2306.8 2307.8 2308.7 2309.7 2310.6 2311.6 2312.5 2313.5 2314.4 2315.4 2316.3 2317.3 2318.2 2319.2 2320.1 2321.1 2322 2323 2323.9 2324.9 2325.8 2326.8 2327.7 2328.7 2329.6 2330.6 2331.5 2332.5 2333.4 2334.4 2335.3 2336.3 2337.2 2338.1 2339.1 2340 2341 2341.9 2342.9 2343.8 2344.8 2345.7 2346.7 2347.6 2348.6 2349.5 2350.5 2351.4 2352.4 2353.3 2354.3 2355.2 2356.2 2357.1 2358.1 2359 2360 2360.9 2361.9 2362.8 2363.8 2364.7 2365.7 2366.6 2367.6 2368.5 2369.5 2370.4 2371.4 2372.3 2373.3 2374.2 2375.2 2376.1 2377.1 2378 2379 2379.9 2380.9 2381.8 2382.8 2383.7 2384.7 2385.6 2386.6 2387.5 2388.5 2389.4 2390.4 2391.3 2392.3 2393.2 2394.2 2395.1 2396.1 2397
2395.7 2394.7 2393.8 2392.8 2391.9 2390.9 2390 2389 2388 2387.1 2386.1 2385.2 2384.2 2383.3 2382.3 2381.4 2380.4 2379.5 2378.5 2377.5 2376.6 2375.6 2374.7 2373.7 2372.8 2371.8 2370.9 2369.9 2368.9 2368 2367 2366.1 2365.1 2364.2 2363.2 2362.3 2361.3 2360.3 2359.4 2358.4 2357.5 2356.5 2355.6 2354.6 2353.7 2352.7 2351.8 2350.8 2349.8 2348.9 2347.9 2347 2346 2345.1 2344.1 2343.2 2342.2 2341.2 2340.3 2339.3 2338.4 2337.4 2336.5 2335.5 2334.6 2333.6 2332.6 2331.7 2330.7 2329.8 2328.8 2327.9 2326.9 2326 2325 2324.1 2323.1 2322.1 2321.2 2320.2 2319.3 2318.3 2317.4 2316.4 2315.5 2314.5 2313.5 2312.6 2311.6 2310.7 2309.7 2308.8 2307.8 2306.9 2305.9 2304.9 2304 2303 2302.1 2301.1 2300.2 2299.2 2298.3 2297.3 2296.4 2295.4 2294.4 2293.5 2292.5 2291.6 2290.6 2289.7 2288.7 2287.8 2286.8 2285.8 2284.9 2283.9 2283 2282 2281.1 2280.1 2279.2 2278.2 2277.3 2276.3 2275.3 2274.4 2273.4 2272.5 2271.5 2270.6 2269.6 2268.7 2267.7 2266.7 2265.8 2264.8 2263.9 2262.9 2262 2261 2260.1 2259.1 2258.1 2257.2 2256.2 2255.3 2254.3 2253.4 2252.4 2251.5 2250.5 2249.6 2248.6 2247.6 2246.7 2245.7 2244.8 2243.8 2242.9 2241.9 2241 2240 2239 2238.1 2237.1 2236.2 2235.2 2234.3 2233.3 2232.4 2231.4 2230.4 2229.5 2228.5 2227.6 2226.6 2225.7 2224.7 2223.8 2222.8 2221.9 2220.9 2219.9 2219 2218 2217.1 2216.1 2215.2 2214.2 2213.3 2212.3 2211.3 2210.4 2209.4 2208.5 2207.5 2206.6 2205.6 2205.6 2206.6 2207.5 2208.5 2209.4 2210.4 2211.3 2212.3 2213.3 2214.2 2215.2 2216.1 2217.1 2218 2219 2219.9 2220.9 2221.9 2222.8 2223.8 2224.7 2225.7 2226.6 2227.6 2228.5 2229.5 2230.4 2231.4 2232.4 2233.3 2234.3 2235.2 2236.2 2237.1 2238.1 2239 2240 2241 2241.9 2242.9 2243.8 2244.8 2245.7 2246.7 2247.6 2248.6 2249.6 2250.5 2251.5 2252.4 2253.4 2254.3 2255.3 2256.2 2257.2 2258.1 2259.1 2260.1 2261 2262 2262.9 2263.9 2264.8 2265.8 2266.7 2267.7 2268.7 2269.6 2270.6 2271.5 2272.5 2273.4 2274.4 2275.3 2276.3 2277.3 2278.2 2279.2 2280.1 2281.1 2282 2283 2283.9 2284.9 2285.8 2286.8 2287.8 2288.7 2289.7 2290.6 2291.6 2292.5 2293.5 2294.4 2295.4 2296.4 2297.3 2298.3 2299.2 2300.2 2301.1 2302.1 2303 2304 2304.9 2305.9 2306.9 2307.8 2308.8 2309.7 2310.7 2311.6 2312.6 2313.5 2314.5 2315.5 2316.4 2317.4 2318.3 2319.3 2320.2 2321.2 2322.1 2323.1 2324.1 2325 2326 2326.9 2327.9 2328.8 2329.8 2330.7 2331.7 2332.6 2333.6 2334.6 2335.5 2336.5 2337.4 2338.4 2339.3 2340.3 2341.2 2342.2 2343.2 2344.1 2345.1 2346 2347 2347.9 2348.9 2349.8 2350.8 2351.8 2352.7 2353.7 2354.6 2355.6 2356.5 2357.5 2358.4 2359.4 2360.3 2361.3 2362.3 2363.2 2364.2 2365.1 2366.1 2367 2368 2368.9 2369.9 2370.9 2371.8 2372.8 2373.7 2374.7 2375.6 2376.6 2377.5 2378.5 2379.5 2380.4 2381.4 2382.3 2383.3 2384.2 2385.2 2386.1 2387.1 2388 2389 2390 2390.9 2391.9 2392.8 2393.8 2394.7 2395.7
2394.4 2393.4 2392.4 2391.5 2390.5 2389.6 2388.6 2387.6 2386.7 2385.7 2384.8 2383.8 2382.8 2381.9 2380.9 2379.9 2379 2378 2377.1 2376.1 2375.1 2374.2 2373.2 2372.3 2371.3 2370.3 2369.4 2368.4 2367.5 2366.5 2365.5 2364.6 2363.6 2362.7 2361.7 2360.7 2359.8 2358.8 2357.8 2356.9 2355.9 2355 2354 2353 2352.1 2351.1 2350.2 2349.2 2348.2 2347.3 2346.3 2345.4 2344.4 2343.4 2342.5 2341.5 2340.6 2339.6 2338.6 2337.7 2336.7 2335.8 2334.8 2333.8 2332.9 2331.9 2330.9 2330 2329 2328.1 2327.1 2326.1 2325.2 2324.2 2323.3 2322.3 2321.3 2320.4 2319.4 2318.5 2317.5 2316.5 2315.6 2314.6 2313.7 2312.7 2311.7 2310.8 2309.8 2308.8 2307.9 2306.9 2306 2305 2304 2303.1 2302.1 2301.2 2300.2 2299.2 2298.3 2297.3 2296.4 2295.4 2294.4 2293.5 2292.5 2291.6 2290.6 2289.6 2288.7 2287.7 2286.7 2285.8 2284.8 2283.9 2282.9 2281.9 2281 2280 2279.1 2278.1 2277.1 2276.2 2275.2 2274.3 2273.3 2272.3 2271.4 2270.4 2269.5 2268.5 2267.5 2266.6 2265.6 2264.7 2263.7 2262.7 2261.8 2260.8 2259.8 2258.9 2257.9 2257 2256 2255 2254.1 2253.1 2252.2 2251.2 2250.2 2249.3 2248.3 2247.4 2246.4 2245.4 2244.5 2243.5 2242.6 2241.6 2240.6 2239.7 2238.7 2237.7 2236.8 2235.8 2234.9 2233.9 2232.9 2232 2231 2230.1 2229.1 2228.1 2227.2 2226.2 2225.3 2224.3 2223.3 2222.4 2221.4 2220.5 2219.5 2218.5 2217.6 2216.6 2215.6 2214.7 2213.7 2212.8 2211.8 2210.8 2209.9 2208.9 2208 2207 2206 2205.1 2204.1 2203.2 2203.2 2204.1 2205.1 2206 2207 2208 2208.9 2209.9 2210.8 2211.8 2212.8 2213.7 2214.7 2215.6 2216.6 2217.6 2218.5 2219.5 2220.5 2221.4 2222.4 2223.3 2224.3 2225.3 2226.2 2227.2 2228.1 2229.1 2230.1 2231 2232 2232.9 2233.9 2234.9 2235.8 2236.8 2237.7 2238.7 2239.7 2240.6 2241.6 2242.6 2243.5 2244.5 2245.4 2246.4 2247.4 2248.3 2249.3 2250.2 2251.2 2252.2 2253.1 2254.1 2255 2256 2257 2257.9 2258.9 2259.8 2260.8 2261.8 2262.7 2263.7 2264.7 2265.6 2266.6 2267.5 2268.5 2269.5 2270.4 2271.4 2272.3 2273.3 2274.3 2275.2 2276.2 2277.1 2278.1 2279.1 2280 2281 2281.9 2282.9 2283.9 2284.8 2285.8 2286.7 2287.7 2288.7 2289.6 2290.6 2291.6 2292.5 2293.5 2294.4 2295.4 2296.4 2297.3 2298.3 2299.2 2300.2 2301.2 2302.1 2303.1 2304 2305 2306 2306.9 2307.9 2308.8 2309.8 2310.8 2311.7 2312.7 2313.7 2314.6 2315.6 2316.5 2317.5 2318.5 2319.4 2320.4 2321.3 2322.3 2323.3 2324.2 2325.2 2326.1 2327.1 2328.1 2329 2330 2330.9 2331.9 2332.9 2333.8 2334.8 2335.8 2336.7 2337.7 2338.6 2339.6 2340.6 2341.5 2342.5 2343.4 2344.4 2345.4 2346.3 2347.3 2348.2 2349.2 2350.2 2351.1 2352.1 2353 2354 2355 2355.9 2356.9 2357.8 2358.8 2359.8 2360.7 2361.7 2362.7 2363.6 2364.6 2365.5 2366.5 2367.5 2368.4 2369.4 2370.3 2371.3 2372.3 2373.2 2374.2 2375.1 2376.1 2377.1 2378 2379 2379.9 2380.9 2381.9 2382.8 2383.8 2384.8 2385.7 2386.7 2387.6 2388.6 2389.6 2390.5 2391.5 2392.4 2393.4 2394.4
2393 2392.1 2391.1 2390.1 2389.2 2388.2 2387.2 2386.3 2385.3 2384.3 2383.4 2382.4 2381.4 2380.5 2379.5 2378.5 2377.6 2376.6 2375.6 2374.7 2373.7 2372.7 2371.8 2370.8 2369.8 2368.9 2367.9 2366.9 2366 2365 2364 2363.1 2362.1 2361.1 2360.2 2359.2 2358.2 2357.3 2356.3 2355.3 2354.4 2353.4 2352.4 2351.5 2350.5 2349.5 2348.6 2347.6 2346.6 2345.7 2344.7 2343.7 2342.8 2341.8 2340.8 2339.9 2338.9 2337.9 2337 2336 2335 2334.1 2333.1 2332.1 2331.2 2330.2 2329.2 2328.3 2327.3 2326.3 2325.4 2324.4 2323.4 2322.5 2321.5 2320.5 2319.6 2318.6 2317.6 2316.7 2315.7 2314.7 2313.8 2312.8 2311.8 2310.9 2309.9 2308.9 2308 2307 2306 2305.1 2304.1 2303.1 2302.2 2301.2 2300.2 2299.3 2298.3 2297.4 2296.4 2295.4 2294.5 2293.5 2292.5 2291.6 2290.6 2289.6 2288.7 2287.7 2286.7 2285.8 2284.8 2283.8 2282.9 2281.9 2280.9 2280 2279 2278 2277.1 2276.1 2275.1 2274.2 2273.2 2272.2 2271.3 2270.3 2269.3 2268.4 2267.4 2266.4 2265.5 2264.5 2263.5 2262.6 2261.6 2260.6 2259.7 2258.7 2257.7 2256.8 2255.8 2254.8 2253.9 2252.9 2251.9 2251 2250 2249 2248.1 2247.1 2246.1 2245.2 2244.2 2243.2 2242.3 2241.3 2240.3 2239.4 2238.4 2237.4 2236.5 2235.5 2234.5 2233.6 2232.6 2231.6 2230.7 2229.7 2228.7 2227.8 2226.8 2225.8 2224.9 2223.9 2222.9 2222 2221 2220 2219.1 2218.1 2217.1 2216.2 2215.2 2214.2 2213.3 2212.3 2211.3 2210.4 2209.4 2208.4 2207.5 2206.5 2205.5 2204.6 2203.6 2202.6 2201.7 2200.7 2200.7 2201.7 2202.6 2203.6 2204.6 2205.5 2206.5 2207.5 2208.4 2209.4 2210.4 2211.3 2212.3 2213.3 2214.2 2215.2 2216.2 2217.1 2218.1 2219.1 2220 2221 2222 2222.9 2223.9 2224.9 2225.8 2226.8 2227.8 2228.7 2229.7 2230.7 2231.6 2232.6 2233.6 2234.5 2235.5 2236.5 2237.4 2238.4 2239.4 2240.3 2241.3 2242.3 2243.2 2244.2 2245.2 2246.1 2247.1 2248.1 2249 2250 2251 2251.9 2252.9 2253.9 2254.8 2255.8 2256.8 2257.7 2258.7 2259.7 2260.6 2261.6 2262.6 2263.5 2264.5 2265.5 2266.4 2267.4 2268.4 2269.3 2270.3 2271.3 2272.2 2273.2 2274.2 2275.1 2276.1 2277.1 2278 2279 2280 2280.9 2281.9 2282.9 2283.8 2284.8 2285.8 2286.7 2287.7 2288.7 2289.6 2290.6 2291.6 2292.5 2293.5 2294.5 2295.4 2296.4 2297.4 2298.3 2299.3 2300.2 2301.2 2302.2 2303.1 2304.1 2305.1 2306 2307 2308 2308.9 2309.9 2310.9 2311.8 2312.8 2313.8 2314.7 2315.7 2316.7 2317.6 2318.6 2319.6 2320.5 2321.5 2322.5 2323.4 2324.4 2325.4 2326.3 2327.3 2328.3 2329.2 2330.2 2331.2 2332.1 2333.1 2334.1 2335 2336 2337 2337.9 2338.9 2339.9 2340.8 2341.8 2342.8 2343.7 2344.7 2345.7 2346.6 2347.6 2348.6 2349.5 2350.5 2351.5 2352.4 2353.4 2354.4 2355.3 2356.3 2357.3 2358.2 2359.2 2360.2 2361.1 2362.1 2363.1 2364 2365 2366 2366.9 2367.9 2368.9 2369.8 2370.8 2371.8 2372.7 2373.7 2374.7 2375.6 2376.6 2377.6 2378.5 2379.5 2380.5 2381.4 2382.4 2383.4 2384.3 2385.3 2386.3 2387.2 2388.2 2389.2 2390.1 2391.1 2392.1 2393
2391.7 2390.7 2389.8 2388.8 2387.8 2386.8 2385.9 2384.9 2383.9 2383 2382 2381 2380 2379.1 2378.1 2377.1 2376.1 2375.2 2374.2 2373.2 2372.3 2371.3 2370.3 2369.3 2368.4 2367.4 2366.4 2365.5 2364.5 2363.5 2362.5 2361.6 2360.6 2359.6 2358.7 2357.7 2356.7 2355.7 2354.8 2353.8 2352.8 2351.8 2350.9 2349.9 2348.9 2348 2347 2346 2345 2344.1 2343.1 2342.1 2341.2 2340.2 2339.2 2338.2 2337.3 2336.3 2335.3 2334.3 2333.4 2332.4 2331.4 2330.5 2329.5 2328.5 2327.5 2326.6 2325.6 2324.6 2323.7 2322.7 2321.7 2320.7 2319.8 2318.8 2317.8 2316.8 2315.9 2314.9 2313.9 2313 2312 2311 2310 2309.1 2308.1 2307.1 2306.2 2305.2 2304.2 2303.2 2302.3 2301.3 2300.3 2299.3 2298.4 2297.4 2296.4 2295.5 2294.5 2293.5 2292.5 2291.6 2290.6 2289.6 2288.7 2287.7 2286.7 2285.7 2284.8 2283.8 2282.8 2281.9 2280.9 2279.9 2278.9 2278 2277 2276 2275 2274.1 2273.1 2272.1 2271.2 2270.2 2269.2 2268.2 2267.3 2266.3 2265.3 2264.4 2263.4 2262.4 2261.4 2260.5 2259.5 2258.5 2257.5 2256.6 2255.6 2254.6 2253.7 2252.7 2251.7 2250.7 2249.8 2248.8 2247.8 2246.9 2245.9 2244.9 2243.9 2243 2242 2241 2240 2239.1 2238.1 2237.1 2236.2 2235.2 2234.2 2233.2 2232.3 2231.3 2230.3 2229.4 2228.4 2227.4 2226.4 2225.5 2224.5 2223.5 2222.5 2221.6 2220.6 2219.6 2218.7 2217.7 2216.7 2215.7 2214.8 2213.8 2212.8 2211.9 2210.9 2209.9 2208.9 2208 2207 2206 2205.1 2204.1 2203.1 2202.1 2201.2 2200.2 2199.2 2198.2 2198.2 2199.2 2200.2 2201.2 2202.1 2203.1 2204.1 2205.1 2206 2207 2208 2208.9 2209.9 2210.9 2211.9 2212.8 2213.8 2214.8 2215.7 2216.7 2217.7 2218.7 2219.6 2220.6 2221.6 2222.5 2223.5 2224.5 2225.5 2226.4 2227.4 2228.4 2229.4 2230.3 2231.3 2232.3 2233.2 2234.2 2235.2 2236.2 2237.1 2238.1 2239.1 2240 2241 2242 2243 2243.9 2244.9 2245.9 2246.9 2247.8 2248.8 2249.8 2250.7 2251.7 2252.7 2253.7 2254.6 2255.6 2256.6 2257.5 2258.5 2259.5 2260.5 2261.4 2262.4 2263.4 2264.4 2265.3 2266.3 2267.3 2268.2 2269.2 2270.2 2271.2 2272.1 2273.1 2274.1 2275 2276 2277 2278 2278.9 2279.9 2280.9 2281.9 2282.8 2283.8 2284.8 2285.7 2286.7 2287.7 2288.7 2289.6 2290.6 2291.6 2292.5 2293.5 2294.5 2295.5 2296.4 2297.4 2298.4 2299.3 2300.3 2301.3 2302.3 2303.2 2304.2 2305.2 2306.2 2307.1 2308.1 2309.1 2310 2311 2312 2313 2313.9 2314.9 2315.9 2316.8 2317.8 2318.8 2319.8 2320.7 2321.7 2322.7 2323.7 2324.6 2325.6 2326.6 2327.5 2328.5 2329.5 2330.5 2331.4 2332.4 2333.4 2334.3 2335.3 2336.3 2337.3 2338.2 2339.2 2340.2 2341.2 2342.1 2343.1 2344.1 2345 2346 2347 2348 2348.9 2349.9 2350.9 2351.8 2352.8 2353.8 2354.8 2355.7 2356.7 2357.7 2358.7 2359.6 2360.6 2361.6 2362.5 2363.5 2364.5 2365.5 2366.4 2367.4 2368.4 2369.3 2370.3 2371.3 2372.3 2373.2 2374.2 2375.2 2376.1 2377.1 2378.1 2379.1 2380 2381 2382 2383 2383.9 2384.9 2385.9 2386.8 2387.8 2388.8 2389.8 2390.7 2391.7
2390.4 2389.4 2388.4 2387.4 2386.5 2385.5 2384.5 2383.5 2382.6 2381.6 2380.6 2379.6 2378.6 2377.7 2376.7 2375.7 2374.7 2373.8 2372.8 2371.8 2370.8 2369.8 2368.9 2367.9 2366.9 2365.9 2365 2364 2363 2362 2361 2360.1 2359.1 2358.1 2357.1 2356.2 2355.2 2354.2 2353.2 2352.2 2351.3 2350.3 2349.3 2348.3 2347.4 2346.4 2345.4 2344.4 2343.4 2342.5 2341.5 2340.5 2339.5 2338.6 2337.6 2336.6 2335.6 2334.6 2333.7 2332.7 2331.7 2330.7 2329.8 2328.8 2327.8 2326.8 2325.8 2324.9 2323.9 2322.9 2321.9 2321 2320 2319 2318 2317 2316.1 2315.1 2314.1 2313.1 2312.2 2311.2 2310.2 2309.2 2308.2 2307.3 2306.3 2305.3 2304.3 2303.3 2302.4 2301.4 2300.4 2299.4 2298.5 2297.5 2296.5 2295.5 2294.5 2293.6 2292.6 2291.6 2290.6 2289.7 2288.7 2287.7 2286.7 2285.7 2284.8 2283.8 2282.8 2281.8 2280.9 2279.9 2278.9 2277.9 2276.9 2276 2275 2274 2273 2272.1 2271.1 2270.1 2269.1 2268.1 2267.2 2266.2 2265.2 2264.2 2263.3 2262.3 2261.3 2260.3 2259.3 2258.4 2257.4 2256.4 2255.4 2254.5 2253.5 2252.5 2251.5 2250.5 2249.6 2248.6 2247.6 2246.6 2245.7 2244.7 2243.7 2242.7 2241.7 2240.8 2239.8 2238.8 2237.8 2236.9 2235.9 2234.9 2233.9 2232.9 2232 2231 2230 2229 2228.1 2227.1 2226.1 2225.1 2224.1 2223.2 2222.2 2221.2 2220.2 2219.3 2218.3 2217.3 2216.3 2215.3 2214.4 2213.4 2212.4 2211.4 2210.5 2209.5 2208.5 2207.5 2206.5 2205.6 2204.6 2203.6 2202.6 2201.7 2200.7 2199.7 2198.7 2197.7 2196.8 2195.8 2195.8 2196.8 2197.7 2198.7 2199.7 2200.7 2201.7 2202.6 2203.6 2204.6 2205.6 2206.5 2207.5 2208.5 2209.5 2210.5 2211.4 2212.4 2213.4 2214.4 2215.3 2216.3 2217.3 2218.3 2219.3 2220.2 2221.2 2222.2 2223.2 2224.1 2225.1 2226.1 2227.1 2228.1 2229 2230 2231 2232 2232.9 2233.9 2234.9 2235.9 2236.9 2237.8 2238.8 2239.8 2240.8 2241.7 2242.7 2243.7 2244.7 2245.7 2246.6 2247.6 2248.6 2249.6 2250.5 2251.5 2252.5 2253.5 2254.5 2255.4 2256.4 2257.4 2258.4 2259.3 2260.3 2261.3 2262.3 2263.3 2264.2 2265.2 2266.2 2267.2 2268.1 2269.1 2270.1 2271.1 2272.1 2273 2274 2275 2276 2276.9 2277.9 2278.9 2279.9 2280.9 2281.8 2282.8 2283.8 2284.8 2285.7 2286.7 2287.7 2288.7 2289.7 2290.6 2291.6 2292.6 2293.6 2294.5 2295.5 2296.5 2297.5 2298.5 2299.4 2300.4 2301.4 2302.4 2303.3 2304.3 2305.3 2306.3 2307.3 2308.2 2309.2 2310.2 2311.2 2312.2 2313.1 2314.1 2315.1 2316.1 2317 2318 2319 2320 2321 2321.9 2322.9 2323.9 2324.9 2325.8 2326.8 2327.8 2328.8 2329.8 2330.7 2331.7 2332.7 2333.7 2334.6 2335.6 2336.6 2337.6 2338.6 2339.5 2340.5 2341.5 2342.5 2343.4 2344.4 2345.4 2346.4 2347.4 2348.3 2349.3 2350.3 2351.3 2352.2 2353.2 2354.2 2355.2 2356.2 2357.1 2358.1 2359.1 2360.1 2361 2362 2363 2364 2365 2365.9 2366.9 2367.9 2368.9 2369.8 2370.8 2371.8 2372.8 2373.8 2374.7 2375.7 2376.7 2377.7 2378.6 2379.6 2380.6 2381.6 2382.6 2383.5 2384.5 2385.5 2386.5 2387.4 2388.4 2389.4 2390.4
2389 2388.1 2387.1 2386.1 2385.1 2384.1 2383.1 2382.2 2381.2 2380.2 2379.2 2378.2 2377.2 2376.3 2375.3 2374.3 2373.3 2372.3 2371.3 2370.4 2369.4 2368.4 2367.4 2366.4 2365.4 2364.5 2363.5 2362.5 2361.5 2360.5 2359.5 2358.6 2357.6 2356.6 2355.6 2354.6 2353.6 2352.7 2351.7 2350.7 2349.7 2348.7 2347.7 2346.8 2345.8 2344.8 2343.8 2342.8 2341.8 2340.9 2339.9 2338.9 2337.9 2336.9 2335.9 2335 2334 2333 2332 2331 2330 2329.1 2328.1 2327.1 2326.1 2325.1 2324.1 2323.2 2322.2 2321.2 2320.2 2319.2 2318.2 2317.3 2316.3 2315.3 2314.3 2313.3 2312.3 2311.4 2310.4 2309.4 2308.4 2307.4 2306.4 2305.5 2304.5 2303.5 2302.5 2301.5 2300.5 2299.6 2298.6 2297.6 2296.6 2295.6 2294.6 2293.6 2292.7 2291.7 2290.7 2289.7 2288.7 2287.7 2286.8 2285.8 2284.8 2283.8 2282.8 2281.8 2280.9 2279.9 2278.9 2277.9 2276.9 2275.9 2275 2274 2273 2272 2271 2270 2269.1 2268.1 2267.1 2266.1 2265.1 2264.1 2263.2 2262.2 2261.2 2260.2 2259.2 2258.2 2257.3 2256.3 2255.3 2254.3 2253.3 2252.3 2251.4 2250.4 2249.4 2248.4 2247.4 2246.4 2245.5 2244.5 2243.5 2242.5 2241.5 2240.5 2239.6 2238.6 2237.6 2236.6 2235.6 2234.6 2233.7 2232.7 2231.7 2230.7 2229.7 2228.7 2227.8 2226.8 2225.8 2224.8 2223.8 2222.8 2221.9 2220.9 2219.9 2218.9 2217.9 2216.9 2216 2215 2214 2213 2212 2211 2210.1 2209.1 2208.1 2207.1 2206.1 2205.1 2204.2 2203.2 2202.2 2201.2 2200.2 2199.2 2198.3 2197.3 2196.3 2195.3 2194.3 2193.3 2193.3 2194.3 2195.3 2196.3 2197.3 2198.3 2199.2 2200.2 2201.2 2202.2 2203.2 2204.2 2205.1 2206.1 2207.1 2208.1 2209.1 2210.1 2211 2212 2213 2214 2215 2216 2216.9 2217.9 2218.9 2219.9 2220.9 2221.9 2222.8 2223.8 2224.8 2225.8 2226.8 2227.8 2228.7 2229.7 2230.7 2231.7 2232.7 2233.7 2234.6 2235.6 2236.6 2237.6 2238.6 2239.6 2240.5 2241.5 2242.5 2243.5 2244.5 2245.5 2246.4 2247.4 2248.4 2249.4 2250.4 2251.4 2252.3 2253.3 2254.3 2255.3 2256.3 2257.3 2258.2 2259.2 2260.2 2261.2 2262.2 2263.2 2264.1 2265.1 2266.1 2267.1 2268.1 2269.1 2270 2271 2272 2273 2274 2275 2275.9 2276.9 2277.9 2278.9 2279.9 2280.9 2281.8 2282.8 2283.8 2284.8 2285.8 2286.8 2287.7 2288.7 2289.7 2290.7 2291.7 2292.7 2293.6 2294.6 2295.6 2296.6 2297.6 2298.6 2299.6 2300.5 2301.5 2302.5 2303.5 2304.5 2305.5 2306.4 2307.4 2308.4 2309.4 2310.4 2311.4 2312.3 2313.3 2314.3 2315.3 2316.3 2317.3 2318.2 2319.2 2320.2 2321.2 2322.2 2323.2 2324.1 2325.1 2326.1 2327.1 2328.1 2329.1 2330 2331 2332 2333 2334 2335 2335.9 2336.9 2337.9 2338.9 2339.9 2340.9 2341.8 2342.8 2343.8 2344.8 2345.8 2346.8 2347.7 2348.7 2349.7 2350.7 2351.7 2352.7 2353.6 2354.6 2355.6 2356.6 2357.6 2358.6 2359.5 2360.5 2361.5 2362.5 2363.5 2364.5 2365.4 2366.4 2367.4 2368.4 2369.4 2370.4 2371.3 2372.3 2373.3 2374.3 2375.3 2376.3 2377.2 2378.2 2379.2 2380.2 2381.2 2382.2 2383.1 2384.1 2385.1 2386.1 2387.1 2388.1 2389
2387.7 2386.7 2385.7 2384.8 2383.8 2382.8 2381.8 2380.8 2379.8 2378.8 2377.8 2376.8 2375.8 2374.9 2373.9 2372.9 2371.9 2370.9 2369.9 2368.9 2367.9 2366.9 2366 2365 2364 2363 2362 2361 2360 2359 2358 2357.1 2356.1 2355.1 2354.1 2353.1 2352.1 2351.1 2350.1 2349.1 2348.2 2347.2 2346.2 2345.2 2344.2 2343.2 2342.2 2341.2 2340.2 2339.3 2338.3 2337.3 2336.3 2335.3 2334.3 2333.3 2332.3 2331.3 2330.3 2329.4 2328.4 2327.4 2326.4 2325.4 2324.4 2323.4 2322.4 2321.4 2320.5 2319.5 2318.5 2317.5 2316.5 2315.5 2314.5 2313.5 2312.5 2311.6 2310.6 2309.6 2308.6 2307.6 2306.6 2305.6 2304.6 2303.6 2302.7 2301.7 2300.7 2299.7 2298.7 2297.7 2296.7 2295.7 2294.7 2293.7 2292.8 2291.8 2290.8 2289.8 2288.8 2287.8 2286.8 2285.8 2284.8 2283.9 2282.9 2281.9 2280.9 2279.9 2278.9 2277.9 2276.9 2275.9 2275 2274 2273 2272 2271 2270 2269 2268 2267 2266.1 2265.1 2264.1 2263.1 2262.1 2261.1 2260.1 2259.1 2258.1 2257.2 2256.2 2255.2 2254.2 2253.2 2252.2 2251.2 2250.2 2249.2 2248.2 2247.3 2246.3 2245.3 2244.3 2243.3 2242.3 2241.3 2240.3 2239.3 2238.4 2237.4 2236.4 2235.4 2234.4 2233.4 2232.4 2231.4 2230.4 2229.5 2228.5 2227.5 2226.5 2225.5 2224.5 2223.5 2222.5 2221.5 2220.6 2219.6 2218.6 2217.6 2216.6 2215.6 2214.6 2213.6 2212.6 2211.6 2210.7 2209.7 2208.7 2207.7 2206.7 2205.7 2204.7 2203.7 2202.7 2201.8 2200.8 2199.8 2198.8 2197.8 2196.8 2195.8 2194.8 2193.8 2192.9 2191.9 2190.9 2190.9 2191.9 2192.9 2193.8 2194.8 2195.8 2196.8 2197.8 2198.8 2199.8 2200.8 2201.8 2202.7 2203.7 2204.7 2205.7 2206.7 2207.7 2208.7 2209.7 2210.7 2211.6 2212.6 2213.6 2214.6 2215.6 2216.6 2217.6 2218.6 2219.6 2220.6 2221.5 2222.5 2223.5 2224.5 2225.5 2226.5 2227.5 2228.5 2229.5 2230.4 2231.4 2232.4 2233.4 2234.4 2235.4 2236.4 2237.4 2238.4 2239.3 2240.3 2241.3 2242.3 2243.3 2244.3 2245.3 2246.3 2247.3 2248.2 2249.2 2250.2 2251.2 2252.2 2253.2 2254.2 2255.2 2256.2 2257.2 2258.1 2259.1 2260.1 2261.1 2262.1 2263.1 2264.1 2265.1 2266.1 2267 2268 2269 2270 2271 2272 2273 2274 2275 2275.9 2276.9 2277.9 2278.9 2279.9 2280.9 2281.9 2282.9 2283.9 2284.8 2285.8 2286.8 2287.8 2288.8 2289.8 2290.8 2291.8 2292.8 2293.7 2294.7 2295.7 2296.7 2297.7 2298.7 2299.7 2300.7 2301.7 2302.7 2303.6 2304.6 2305.6 2306.6 2307.6 2308.6 2309.6 2310.6 2311.6 2312.5 2313.5 2314.5 2315.5 2316.5 2317.5 2318.5 2319.5 2320.5 2321.4 2322.4 2323.4 2324.4 2325.4 2326.4 2327.4 2328.4 2329.4 2330.3 2331.3 2332.3 2333.3 2334.3 2335.3 2336.3 2337.3 2338.3 2339.3 2340.2 2341.2 2342.2 2343.2 2344.2 2345.2 2346.2 2347.2 2348.2 2349.1 2350.1 2351.1 2352.1 2353.1 2354.1 2355.1 2356.1 2357.1 2358 2359 2360 2361 2362 2363 2364 2365 2366 2366.9 2367.9 2368.9 2369.9 2370.9 2371.9 2372.9 2373.9 2374.9 2375.8 2376.8 2377.8 2378.8 2379.8 2380.8 2381.8 2382.8 2383.8 2384.8 2385.7 2386.7 2387.7
2386.4 2385.4 2384.4 2383.4 2382.4 2381.4 2380.4 2379.4 2378.4 2377.4 2376.4 2375.4 2374.5 2373.5 2372.5 2371.5 2370.5 2369.5 2368.5 2367.5 2366.5 2365.5 2364.5 2363.5 2362.5 2361.5 2360.5 2359.5 2358.5 2357.5 2356.5 2355.6 2354.6 2353.6 2352.6 2351.6 2350.6 2349.6 2348.6 2347.6 2346.6 2345.6 2344.6 2343.6 2342.6 2341.6 2340.6 2339.6 2338.6 2337.6 2336.6 2335.7 2334.7 2333.7 2332.7 2331.7 2330.7 2329.7 2328.7 2327.7 2326.7 2325.7 2324.7 2323.7 2322.7 2321.7 2320.7 2319.7 2318.7 2317.7 2316.8 2315.8 2314.8 2313.8 2312.8 2311.8 2310.8 2309.8 2308.8 2307.8 2306.8 2305.8 2304.8 2303.8 2302.8 2301.8 2300.8 2299.8 2298.8 2297.9 2296.9 2295.9 2294.9 2293.9 2292.9 2291.9 2290.9 2289.9 2288.9 2287.9 2286.9 2285.9 2284.9 2283.9 2282.9 2281.9 2280.9 2279.9 2279 2278 2277 2276 2275 2274 2273 2272 2271 2270 2269 2268 2267 2266 2265 2264 2263 2262 2261 2260 2259.1 2258.1 2257.1 2256.1 2255.1 2254.1 2253.1 2252.1 2251.1 2250.1 2249.1 2248.1 2247.1 2246.1 2245.1 2244.1 2243.1 2242.1 2241.1 2240.2 2239.2 2238.2 2237.2 2236.2 2235.2 2234.2 2233.2 2232.2 2231.2 2230.2 2229.2 2228.2 2227.2 2226.2 2225.2 2224.2 2223.2 2222.2 2221.3 2220.3 2219.3 2218.3 2217.3 2216.3 2215.3 2214.3 2213.3 2212.3 2211.3 2210.3 2209.3 2208.3 2207.3 2206.3 2205.3 2204.3 2203.3 2202.3 2201.4 2200.4 2199.4 2198.4 2197.4 2196.4 2195.4 2194.4 2193.4 2192.4 2191.4 2190.4 2189.4 2188.4 2188.4 2189.4 2190.4 2191.4 2192.4 2193.4 2194.4 2195.4 2196.4 2197.4 2198.4 2199.4 2200.4 2201.4 2202.3 2203.3 2204.3 2205.3 2206.3 2207.3 2208.3 2209.3 2210.3 2211.3 2212.3 2213.3 2214.3 2215.3 2216.3 2217.3 2218.3 2219.3 2220.3 2221.3 2222.2 2223.2 2224.2 2225.2 2226.2 2227.2 2228.2 2229.2 2230.2 2231.2 2232.2 2233.2 2234.2 2235.2 2236.2 2237.2 2238.2 2239.2 2240.2 2241.1 2242.1 2243.1 2244.1 2245.1 2246.1 2247.1 2248.1 2249.1 2250.1 2251.1 2252.1 2253.1 2254.1 2255.1 2256.1 2257.1 2258.1 2259.1 2260 2261 2262 2263 2264 2265 2266 2267 2268 2269 2270 2271 2272 2273 2274 2275 2276 2277 2278 2279 2279.9 2280.9 2281.9 2282.9 2283.9 2284.9 2285.9 2286.9 2287.9 2288.9 2289.9 2290.9 2291.9 2292.9 2293.9 2294.9 2295.9 2296.9 2297.9 2298.8 2299.8 2300.8 2301.8 2302.8 2303.8 2304.8 2305.8 2306.8 2307.8 2308.8 2309.8 2310.8 2311.8 2312.8 2313.8 2314.8 2315.8 2316.8 2317.7 2318.7 2319.7 2320.7 2321.7 2322.7 2323.7 2324.7 2325.7 2326.7 2327.7 2328.7 2329.7 2330.7 2331.7 2332.7 2333.7 2334.7 2335.7 2336.6 2337.6 2338.6 2339.6 2340.6 2341.6 2342.6 2343.6 2344.6 2345.6 2346.6 2347.6 2348.6 2349.6 2350.6 2351.6 2352.6 2353.6 2354.6 2355.6 2356.5 2357.5 2358.5 2359.5 2360.5 2361.5 2362.5 2363.5 2364.5 2365.5 2366.5 2367.5 2368.5 2369.5 2370.5 2371.5 2372.5 2373.5 2374.5 2375.4 2376.4 2377.4 2378.4 2379.4 2380.4 2381.4 2382.4 2383.4 2384.4 2385.4 2386.4
2385.1 2384.1 2383.1 2382.1 2381.1 2380.1 2379.1 2378.1 2377.1 2376.1 2375.1 2374.1 2373.1 2372.1 2371.1 2370.1 2369.1 2368.1 2367.1 2366.1 2365.1 2364.1 2363.1 2362.1 2361.1 2360.1 2359 2358 2357 2356 2355 2354 2353 2352 2351 2350 2349 2348 2347 2346 2345 2344 2343 2342 2341 2340 2339 2338 2337 2336 2335 2334 2333 2332 2331 2330 2329 2328 2327 2326 2325 2324 2323 2322 2321 2320 2319 2318 2317 2316 2315 2314 2313 2312 2311 2310 2309 2308 2307 2306 2305 2304 2303 2302 2301 2300 2299 2298 2297 2296 2295 2294 2293 2292 2291 2290 2289 2288 2287 2286 2285 2284 2283 2282 2281 2280 2279 2278 2277 2276 2275 2274 2273 2272 2271 2270 2269 2268 2267 2266 2265 2264 2263 2262 2261 2260 2259 2258 2257 2256 2255 2254 2253 2252 2251 2250 2249 2248 2247 2246 2245 2244 2243 2242 2241 2240 2239 2238 2237 2236 2235 2234 2233 2232 2231 2230 2229 2228 2227 2226 2225 2224 2223 2222 2221 2220 2219 2218 2217 2216 2215 2214 2213 2212 2211 2210 2209 2208 2207 2206 2205 2204 2203 2202 2201 2200 2199 2198 2197 2196 2195 2194 2193 2192 2191 2190 2189 2188 2187 2186 2186 2187 2188 2189 2190 2191 2192 2193 2194 2195 2196 2197 2198 2199 2200 2201 2202 2203 2204 2205 2206 2207 2208 2209 2210 2211 2212 2213 2214 2215 2216 2217 2218 2219 2220 2221 2222 2223 2224 2225 2226 2227 2228 2229 2230 2231 2232 2233 2234 2235 2236 2237 2238 2239 2240 2241 2242 2243 2244 2245 2246 2247 2248 2249 2250 2251 2252 2253 2254 2255 2256 2257 2258 2259 2260 2261 2262 2263 2264 2265 2266 2267 2268 2269 2270 2271 2272 2273 2274 2275 2276 2277 2278 2279 2280 2281 2282 2283 2284 2285 2286 2287 2288 2289 2290 2291 2292 2293 2294 2295 2296 2297 2298 2299 2300 2301 2302 2303 2304 2305 2306 2307 2308 2309 2310 2311 2312 2313 2314 2315 2316 2317 2318 2319 2320 2321 2322 2323 2324 2325 2326 2327 2328 2329 2330 2331 2332 2333 2334 2335 2336 2337 2338 2339 2340 2341 2342 2343 2344 2345 2346 2347 2348 2349 2350 2351 2352 2353 2354 2355 2356 2357 2358 2359 2360.1 2361.1 2362.1 2363.1 2364.1 2365.1 2366.1 2367.1 2368.1 2369.1 2370.1 2371.1 2372.1 2373.1 2374.1 2375.1 2376.1 2377.1 2378.1 2379.1 2380.1 2381.1 2382.1 2383.1 2384.1 2385.1
2383.7 2382.7 2381.7 2380.7 2379.7 2378.7 2377.7 2376.7 2375.7 2374.7 2373.7 2372.7 2371.7 2370.7 2369.6 2368.6 2367.6 2366.6 2365.6 2364.6 2363.6 2362.6 2361.6 2360.6 2359.6 2358.6 2357.6 2356.6 2355.6 2354.6 2353.5 2352.5 2351.5 2350.5 2349.5 2348.5 2347.5 2346.5 2345.5 2344.5 2343.5 2342.5 2341.5 2340.5 2339.5 2338.5 2337.5 2336.4 2335.4 2334.4 2333.4 2332.4 2331.4 2330.4 2329.4 2328.4 2327.4 2326.4 2325.4 2324.4 2323.4 2322.4 2321.4 2320.3 2319.3 2318.3 2317.3 2316.3 2315.3 2314.3 2313.3 2312.3 2311.3 2310.3 2309.3 2308.3 2307.3 2306.3 2305.3 2304.2 2303.2 2302.2 2301.2 2300.2 2299.2 2298.2 2297.2 2296.2 2295.2 2294.2 2293.2 2292.2 2291.2 2290.2 2289.2 2288.1 2287.1 2286.1 2285.1 2284.1 2283.1 2282.1 2281.1 2280.1 2279.1 2278.1 2277.1 2276.1 2275.1 2274.1 2273.1 2272.1 2271 2270 2269 2268 2267 2266 2265 2264 2263 2262 2261 2260 2259 2258 2257 2256 2254.9 2253.9 2252.9 2251.9 2250.9 2249.9 2248.9 2247.9 2246.9 2245.9 2244.9 2243.9 2242.9 2241.9 2240.9 2239.9 2238.8 2237.8 2236.8 2235.8 2234.8 2233.8 2232.8 2231.8 2230.8 2229.8 2228.8 2227.8 2226.8 2225.8 2224.8 2223.8 2222.7 2221.7 2220.7 2219.7 2218.7 2217.7 2216.7 2215.7 2214.7 2213.7 2212.7 2211.7 2210.7 2209.7 2208.7 2207.7 2206.7 2205.6 2204.6 2203.6 2202.6 2201.6 2200.6 2199.6 2198.6 2197.6 2196.6 2195.6 2194.6 2193.6 2192.6 2191.6 2190.6 2189.5 2188.5 2187.5 2186.5 2185.5 2184.5 2183.5 2183.5 2184.5 2185.5 2186.5 2187.5 2188.5 2189.5 2190.6 2191.6 2192.6 2193.6 2194.6 2195.6 2196.6 2197.6 2198.6 2199.6 2200.6 2201.6 2202.6 2203.6 2204.6 2205.6 2206.7 2207.7 2208.7 2209.7 2210.7 2211.7 2212.7 2213.7 2214.7 2215.7 2216.7 2217.7 2218.7 2219.7 2220.7 2221.7 2222.7 2223.8 2224.8 2225.8 2226.8 2227.8 2228.8 2229.8 2230.8 2231.8 2232.8 2233.8 2234.8 2235.8 2236.8 2237.8 2238.8 2239.9 2240.9 2241.9 2242.9 2243.9 2244.9 2245.9 2246.9 2247.9 2248.9 2249.9 2250.9 2251.9 2252.9 2253.9 2254.9 2256 2257 2258 2259 2260 2261 2262 2263 2264 2265 2266 2267 2268 2269 2270 2271 2272.1 2273.1 2274.1 2275.1 2276.1 2277.1 2278.1 2279.1 2280.1 2281.1 2282.1 2283.1 2284.1 2285.1 2286.1 2287.1 2288.1 2289.2 2290.2 2291.2 2292.2 2293.2 2294.2 2295.2 2296.2 2297.2 2298.2 2299.2 2300.2 2301.2 2302.2 2303.2 2304.2 2305.3 2306.3 2307.3 2308.3 2309.3 2310.3 2311.3 2312.3 2313.3 2314.3 2315.3 2316.3 2317.3 2318.3 2319.3 2320.3 2321.4 2322.4 2323.4 2324.4 2325.4 2326.4 2327.4 2328.4 2329.4 2330.4 2331.4 2332.4 2333.4 2334.4 2335.4 2336.4 2337.5 2338.5 2339.5 2340.5 2341.5 2342.5 2343.5 2344.5 2345.5 2346.5 2347.5 2348.5 2349.5 2350.5 2351.5 2352.5 2353.5 2354.6 2355.6 2356.6 2357.6 2358.6 2359.6 2360.6 2361.6 2362.6 2363.6 2364.6 2365.6 2366.6 2367.6 2368.6 2369.6 2370.7 2371.7 2372.7 2373.7 2374.7 2375.7 2376.7 2377.7 2378.7 2379.7 2380.7 2381.7 2382.7 2383.7
2382.4 2381.4 2380.4 2379.4 2378.4 2377.3 2376.3 2375.3 2374.3 2373.3 2372.3 2371.3 2370.3 2369.3 2368.2 2367.2 2366.2 2365.2 2364.2 2363.2 2362.2 2361.2 2360.1 2359.1 2358.1 2357.1 2356.1 2355.1 2354.1 2353.1 2352.1 2351 2350 2349 2348 2347 2346 2345 2344 2342.9 2341.9 2340.9 2339.9 2338.9 2337.9 2336.9 2335.9 2334.9 2333.8 2332.8 2331.8 2330.8 2329.8 2328.8 2327.8 2326.8 2325.7 2324.7 2323.7 2322.7 2321.7 2320.7 2319.7 2318.7 2317.6 2316.6 2315.6 2314.6 2313.6 2312.6 2311.6 2310.6 2309.6 2308.5 2307.5 2306.5 2305.5 2304.5 2303.5 2302.5 2301.5 2300.4 2299.4 2298.4 2297.4 2296.4 2295.4 2294.4 2293.4 2292.4 2291.3 2290.3 2289.3 2288.3 2287.3 2286.3 2285.3 2284.3 2283.2 2282.2 2281.2 2280.2 2279.2 2278.2 2277.2 2276.2 2275.2 2274.1 2273.1 2272.1 2271.1 2270.1 2269.1 2268.1 2267.1 2266 2265 2264 2263 2262 2261 2260 2259 2258 2256.9 2255.9 2254.9 2253.9 2252.9 2251.9 2250.9 2249.9 2248.8 2247.8 2246.8 2245.8 2244.8 2243.8 2242.8 2241.8 2240.8 2239.7 2238.7 2237.7 2236.7 2235.7 2234.7 2233.7 2232.7 2231.6 2230.6 2229.6 2228.6 2227.6 2226.6 2225.6 2224.6 2223.5 2222.5 2221.5 2220.5 2219.5 2218.5 2217.5 2216.5 2215.5 2214.4 2213.4 2212.4 2211.4 2210.4 2209.4 2208.4 2207.4 2206.3 2205.3 2204.3 2203.3 2202.3 2201.3 2200.3 2199.3 2198.3 2197.2 2196.2 2195.2 2194.2 2193.2 2192.2 2191.2 2190.2 2189.1 2188.1 2187.1 2186.1 2185.1 2184.1 2183.1 2182.1 2181.1 2181.1 2182.1 2183.1 2184.1 2185.1 2186.1 2187.1 2188.1 2189.1 2190.2 2191.2 2192.2 2193.2 2194.2 2195.2 2196.2 2197.2 2198.3 2199.3 2200.3 2201.3 2202.3 2203.3 2204.3 2205.3 2206.3 2207.4 2208.4 2209.4 2210.4 2211.4 2212.4 2213.4 2214.4 2215.5 2216.5 2217.5 2218.5 2219.5 2220.5 2221.5 2222.5 2223.5 2224.6 2225.6 2226.6 2227.6 2228.6 2229.6 2230.6 2231.6 2232.7 2233.7 2234.7 2235.7 2236.7 2237.7 2238.7 2239.7 2240.8 2241.8 2242.8 2243.8 2244.8 2245.8 2246.8 2247.8 2248.8 2249.9 2250.9 2251.9 2252.9 2253.9 2254.9 2255.9 2256.9 2258 2259 2260 2261 2262 2263 2264 2265 2266 2267.1 2268.1 2269.1 2270.1 2271.1 2272.1 2273.1 2274.1 2275.2 2276.2 2277.2 2278.2 2279.2 2280.2 2281.2 2282.2 2283.2 2284.3 2285.3 2286.3 2287.3 2288.3 2289.3 2290.3 2291.3 2292.4 2293.4 2294.4 2295.4 2296.4 2297.4 2298.4 2299.4 2300.4 2301.5 2302.5 2303.5 2304.5 2305.5 2306.5 2307.5 2308.5 2309.6 2310.6 2311.6 2312.6 2313.6 2314.6 2315.6 2316.6 2317.6 2318.7 2319.7 2320.7 2321.7 2322.7 2323.7 2324.7 2325.7 2326.8 2327.8 2328.8 2329.8 2330.8 2331.8 2332.8 2333.8 2334.9 2335.9 2336.9 2337.9 2338.9 2339.9 2340.9 2341.9 2342.9 2344 2345 2346 2347 2348 2349 2350 2351 2352.1 2353.1 2354.1 2355.1 2356.1 2357.1 2358.1 2359.1 2360.1 2361.2 2362.2 2363.2 2364.2 2365.2 2366.2 2367.2 2368.2 2369.3 2370.3 2371.3 2372.3 2373.3 2374.3 2375.3 2376.3 2377.3 2378.4 2379.4 2380.4 2381.4 2382.4
2381.1 2380.1 2379 2378 2377 2376 2375 2374 2372.9 2371.9 2370.9 2369.9 2368.9 2367.9 2366.8 2365.8 2364.8 2363.8 2362.8 2361.7 2360.7 2359.7 2358.7 2357.7 2356.7 2355.6 2354.6 2353.6 2352.6 2351.6 2350.6 2349.5 2348.5 2347.5 2346.5 2345.5 2344.4 2343.4 2342.4 2341.4 2340.4 2339.4 2338.3 2337.3 2336.3 2335.3 2334.3 2333.3 2332.2 2331.2 2330.2 2329.2 2328.2 2327.2 2326.1 2325.1 2324.1 2323.1 2322.1 2321 2320 2319 2318 2317 2316 2314.9 2313.9 2312.9 2311.9 2310.9 2309.9 2308.8 2307.8 2306.8 2305.8 2304.8 2303.7 2302.7 2301.7 2300.7 2299.7 2298.7 2297.6 2296.6 2295.6 2294.6 2293.6 2292.6 2291.5 2290.5 2289.5 2288.5 2287.5 2286.5 2285.4 2284.4 2283.4 2282.4 2281.4 2280.3 2279.3 2278.3 2277.3 2276.3 2275.3 2274.2 2273.2 2272.2 2271.2 2270.2 2269.2 2268.1 2267.1 2266.1 2265.1 2264.1 2263 2262 2261 2260 2259 2258 2256.9 2255.9 2254.9 2253.9 2252.9 2251.9 2250.8 2249.8 2248.8 2247.8 2246.8 2245.8 2244.7 2243.7 2242.7 2241.7 2240.7 2239.6 2238.6 2237.6 2236.6 2235.6 2234.6 2233.5 2232.5 2231.5 2230.5 2229.5 2228.5 2227.4 2226.4 2225.4 2224.4 2223.4 2222.3 2221.3 2220.3 2219.3 2218.3 2217.3 2216.2 2215.2 2214.2 2213.2 2212.2 2211.2 2210.1 2209.1 2208.1 2207.1 2206.1 2205.1 2204 2203 2202 2201 2200 2198.9 2197.9 2196.9 2195.9 2194.9 2193.9 2192.8 2191.8 2190.8 2189.8 2188.8 2187.8 2186.7 2185.7 2184.7 2183.7 2182.7 2181.6 2180.6 2179.6 2178.6 2178.6 2179.6 2180.6 2181.6 2182.7 2183.7 2184.7 2185.7 2186.7 2187.8 2188.8 2189.8 2190.8 2191.8 2192.8 2193.9 2194.9 2195.9 2196.9 2197.9 2198.9 2200 2201 2202 2203 2204 2205.1 2206.1 2207.1 2208.1 2209.1 2210.1 2211.2 2212.2 2213.2 2214.2 2215.2 2216.2 2217.3 2218.3 2219.3 2220.3 2221.3 2222.3 2223.4 2224.4 2225.4 2226.4 2227.4 2228.5 2229.5 2230.5 2231.5 2232.5 2233.5 2234.6 2235.6 2236.6 2237.6 2238.6 2239.6 2240.7 2241.7 2242.7 2243.7 2244.7 2245.8 2246.8 2247.8 2248.8 2249.8 2250.8 2251.9 2252.9 2253.9 2254.9 2255.9 2256.9 2258 2259 2260 2261 2262 2263 2264.1 2265.1 2266.1 2267.1 2268.1 2269.2 2270.2 2271.2 2272.2 2273.2 2274.2 2275.3 2276.3 2277.3 2278.3 2279.3 2280.3 2281.4 2282.4 2283.4 2284.4 2285.4 2286.5 2287.5 2288.5 2289.5 2290.5 2291.5 2292.6 2293.6 2294.6 2295.6 2296.6 2297.6 2298.7 2299.7 2300.7 2301.7 2302.7 2303.7 2304.8 2305.8 2306.8 2307.8 2308.8 2309.9 2310.9 2311.9 2312.9 2313.9 2314.9 2316 2317 2318 2319 2320 2321 2322.1 2323.1 2324.1 2325.1 2326.1 2327.2 2328.2 2329.2 2330.2 2331.2 2332.2 2333.3 2334.3 2335.3 2336.3 2337.3 2338.3 2339.4 2340.4 2341.4 2342.4 2343.4 2344.4 2345.5 2346.5 2347.5 2348.5 2349.5 2350.6 2351.6 2352.6 2353.6 2354.6 2355.6 2356.7 2357.7 2358.7 2359.7 2360.7 2361.7 2362.8 2363.8 2364.8 2365.8 2366.8 2367.9 2368.9 2369.9 2370.9 2371.9 2372.9 2374 2375 2376 2377 2378 2379 2380.1 2381.1
2379.7 2378.7 2377.7 2376.7 2375.7 2374.6 2373.6 2372.6 2371.6 2370.5 2369.5 2368.5 2367.5 2366.4 2365.4 2364.4 2363.4 2362.4 2361.3 2360.3 2359.3 2358.3 2357.2 2356.2 2355.2 2354.2 2353.1 2352.1 2351.1 2350.1 2349.1 2348 2347 2346 2345 2343.9 2342.9 2341.9 2340.9 2339.8 2338.8 2337.8 2336.8 2335.8 2334.7 2333.7 2332.7 2331.7 2330.6 2329.6 2328.6 2327.6 2326.5 2325.5 2324.5 2323.5 2322.5 2321.4 2320.4 2319.4 2318.4 2317.3 2316.3 2315.3 2314.3 2313.2 2312.2 2311.2 2310.2 2309.2 2308.1 2307.1 2306.1 2305.1 2304 2303 2302 2301 2299.9 2298.9 2297.9 2296.9 2295.9 2294.8 2293.8 2292.8 2291.8 2290.7 2289.7 2288.7 2287.7 2286.6 2285.6 2284.6 2283.6 2282.5 2281.5 2280.5 2279.5 2278.5 2277.4 2276.4 2275.4 2274.4 2273.3 2272.3 2271.3 2270.3 2269.2 2268.2 2267.2 2266.2 2265.2 2264.1 2263.1 2262.1 2261.1 2260 2259 2258 2257 2255.9 2254.9 2253.9 2252.9 2251.9 2250.8 2249.8 2248.8 2247.8 2246.7 2245.7 2244.7 2243.7 2242.6 2241.6 2240.6 2239.6 2238.6 2237.5 2236.5 2235.5 2234.5 2233.4 2232.4 2231.4 2230.4 2229.3 2228.3 2227.3 2226.3 2225.3 2224.2 2223.2 2222.2 2221.2 2220.1 2219.1 2218.1 2217.1 2216 2215 2214 2213 2212 2210.9 2209.9 2208.9 2207.9 2206.8 2205.8 2204.8 2203.8 2202.7 2201.7 2200.7 2199.7 2198.6 2197.6 2196.6 2195.6 2194.6 2193.5 2192.5 2191.5 2190.5 2189.4 2188.4 2187.4 2186.4 2185.3 2184.3 2183.3 2182.3 2181.3 2180.2 2179.2 2178.2 2177.2 2176.1 2176.1 2177.2 2178.2 2179.2 2180.2 2181.3 2182.3 2183.3 2184.3 2185.3 2186.4 2187.4 2188.4 2189.4 2190.5 2191.5 2192.5 2193.5 2194.6 2195.6 2196.6 2197.6 2198.6 2199.7 2200.7 2201.7 2202.7 2203.8 2204.8 2205.8 2206.8 2207.9 2208.9 2209.9 2210.9 2212 2213 2214 2215 2216 2217.1 2218.1 2219.1 2220.1 2221.2 2222.2 2223.2 2224.2 2225.3 2226.3 2227.3 2228.3 2229.3 2230.4 2231.4 2232.4 2233.4 2234.5 2235.5 2236.5 2237.5 2238.6 2239.6 2240.6 2241.6 2242.6 2243.7 2244.7 2245.7 2246.7 2247.8 2248.8 2249.8 2250.8 2251.9 2252.9 2253.9 2254.9 2255.9 2257 2258 2259 2260 2261.1 2262.1 2263.1 2264.1 2265.2 2266.2 2267.2 2268.2 2269.2 2270.3 2271.3 2272.3 2273.3 2274.4 2275.4 2276.4 2277.4 2278.5 2279.5 2280.5 2281.5 2282.5 2283.6 2284.6 2285.6 2286.6 2287.7 2288.7 2289.7 2290.7 2291.8 2292.8 2293.8 2294.8 2295.9 2296.9 2297.9 2298.9 2299.9 2301 2302 2303 2304 2305.1 2306.1 2307.1 2308.1 2309.2 2310.2 2311.2 2312.2 2313.2 2314.3 2315.3 2316.3 2317.3 2318.4 2319.4 2320.4 2321.4 2322.5 2323.5 2324.5 2325.5 2326.5 2327.6 2328.6 2329.6 2330.6 2331.7 2332.7 2333.7 2334.7 2335.8 2336.8 2337.8 2338.8 2339.8 2340.9 2341.9 2342.9 2343.9 2345 2346 2347 2348 2349.1 2350.1 2351.1 2352.1 2353.1 2354.2 2355.2 2356.2 2357.2 2358.3 2359.3 2360.3 2361.3 2362.4 2363.4 2364.4 2365.4 2366.4 2367.5 2368.5 2369.5 2370.5 2371.6 2372.6 2373.6 2374.6 2375.7 2376.7 2377.7 2378.7 2379.7
2378.4 2377.4 2376.4 2375.3 2374.3 2373.3 2372.2 2371.2 2370.2 2369.2 2368.1 2367.1 2366.1 2365 2364 2363 2362 2360.9 2359.9 2358.9 2357.8 2356.8 2355.8 2354.8 2353.7 2352.7 2351.7 2350.6 2349.6 2348.6 2347.6 2346.5 2345.5 2344.5 2343.4 2342.4 2341.4 2340.4 2339.3 2338.3 2337.3 2336.2 2335.2 2334.2 2333.2 2332.1 2331.1 2330.1 2329 2328 2327 2326 2324.9 2323.9 2322.9 2321.8 2320.8 2319.8 2318.7 2317.7 2316.7 2315.7 2314.6 2313.6 2312.6 2311.5 2310.5 2309.5 2308.5 2307.4 2306.4 2305.4 2304.3 2303.3 2302.3 2301.3 2300.2 2299.2 2298.2 2297.1 2296.1 2295.1 2294.1 2293 2292 2291 2289.9 2288.9 2287.9 2286.9 2285.8 2284.8 2283.8 2282.7 2281.7 2280.7 2279.7 2278.6 2277.6 2276.6 2275.5 2274.5 2273.5 2272.5 2271.4 2270.4 2269.4 2268.3 2267.3 2266.3 2265.2 2264.2 2263.2 2262.2 2261.1 2260.1 2259.1 2258 2257 2256 2255 2253.9 2252.9 2251.9 2250.8 2249.8 2248.8 2247.8 2246.7 2245.7 2244.7 2243.6 2242.6 2241.6 2240.6 2239.5 2238.5 2237.5 2236.4 2235.4 2234.4 2233.4 2232.3 2231.3 2230.3 2229.2 2228.2 2227.2 2226.2 2225.1 2224.1 2223.1 2222 2221 2220 2219 2217.9 2216.9 2215.9 2214.8 2213.8 2212.8 2211.8 2210.7 2209.7 2208.7 2207.6 2206.6 2205.6 2204.5 2203.5 2202.5 2201.5 2200.4 2199.4 2198.4 2197.3 2196.3 2195.3 2194.3 2193.2 2192.2 2191.2 2190.1 2189.1 2188.1 2187.1 2186 2185 2184 2182.9 2181.9 2180.9 2179.9 2178.8 2177.8 2176.8 2175.7 2174.7 2173.7 2173.7 2174.7 2175.7 2176.8 2177.8 2178.8 2179.9 2180.9 2181.9 2182.9 2184 2185 2186 2187.1 2188.1 2189.1 2190.1 2191.2 2192.2 2193.2 2194.3 2195.3 2196.3 2197.3 2198.4 2199.4 2200.4 2201.5 2202.5 2203.5 2204.5 2205.6 2206.6 2207.6 2208.7 2209.7 2210.7 2211.8 2212.8 2213.8 2214.8 2215.9 2216.9 2217.9 2219 2220 2221 2222 2223.1 2224.1 2225.1 2226.2 2227.2 2228.2 2229.2 2230.3 2231.3 2232.3 2233.4 2234.4 2235.4 2236.4 2237.5 2238.5 2239.5 2240.6 2241.6 2242.6 2243.6 2244.7 2245.7 2246.7 2247.8 2248.8 2249.8 2250.8 2251.9 2252.9 2253.9 2255 2256 2257 2258 2259.1 2260.1 2261.1 2262.2 2263.2 2264.2 2265.2 2266.3 2267.3 2268.3 2269.4 2270.4 2271.4 2272.5 2273.5 2274.5 2275.5 2276.6 2277.6 2278.6 2279.7 2280.7 2281.7 2282.7 2283.8 2284.8 2285.8 2286.9 2287.9 2288.9 2289.9 2291 2292 2293 2294.1 2295.1 2296.1 2297.1 2298.2 2299.2 2300.2 2301.3 2302.3 2303.3 2304.3 2305.4 2306.4 2307.4 2308.5 2309.5 2310.5 2311.5 2312.6 2313.6 2314.6 2315.7 2316.7 2317.7 2318.7 2319.8 2320.8 2321.8 2322.9 2323.9 2324.9 2326 2327 2328 2329 2330.1 2331.1 2332.1 2333.2 2334.2 2335.2 2336.2 2337.3 2338.3 2339.3 2340.4 2341.4 2342.4 2343.4 2344.5 2345.5 2346.5 2347.6 2348.6 2349.6 2350.6 2351.7 2352.7 2353.7 2354.8 2355.8 2356.8 2357.8 2358.9 2359.9 2360.9 2362 2363 2364 2365 2366.1 2367.1 2368.1 2369.2 2370.2 2371.2 2372.2 2373.3 2374.3 2375.3 2376.4 2377.4 2378.4
2377.1 2376.1 2375 2374 2373 2371.9 2370.9 2369.9 2368.8 2367.8 2366.7 2365.7 2364.7 2363.6 2362.6 2361.6 2360.5 2359.5 2358.5 2357.4 2356.4 2355.4 2354.3 2353.3 2352.3 2351.2 2350.2 2349.2 2348.1 2347.1 2346.1 2345 2344 2343 2341.9 2340.9 2339.9 2338.8 2337.8 2336.7 2335.7 2334.7 2333.6 2332.6 2331.6 2330.5 2329.5 2328.5 2327.4 2326.4 2325.4 2324.3 2323.3 2322.3 2321.2 2320.2 2319.2 2318.1 2317.1 2316.1 2315 2314 2313 2311.9 2310.9 2309.9 2308.8 2307.8 2306.7 2305.7 2304.7 2303.6 2302.6 2301.6 2300.5 2299.5 2298.5 2297.4 2296.4 2295.4 2294.3 2293.3 2292.3 2291.2 2290.2 2289.2 2288.1 2287.1 2286.1 2285 2284 2283 2281.9 2280.9 2279.9 2278.8 2277.8 2276.7 2275.7 2274.7 2273.6 2272.6 2271.6 2270.5 2269.5 2268.5 2267.4 2266.4 2265.4 2264.3 2263.3 2262.3 2261.2 2260.2 2259.2 2258.1 2257.1 2256.1 2255 2254 2253 2251.9 2250.9 2249.8 2248.8 2247.8 2246.7 2245.7 2244.7 2243.6 2242.6 2241.6 2240.5 2239.5 2238.5 2237.4 2236.4 2235.4 2234.3 2233.3 2232.3 2231.2 2230.2 2229.2 2228.1 2227.1 2226.1 2225 2224 2223 2221.9 2220.9 2219.8 2218.8 2217.8 2216.7 2215.7 2214.7 2213.6 2212.6 2211.6 2210.5 2209.5 2208.5 2207.4 2206.4 2205.4 2204.3 2203.3 2202.3 2201.2 2200.2 2199.2 2198.1 2197.1 2196.1 2195 2194 2193 2191.9 2190.9 2189.8 2188.8 2187.8 2186.7 2185.7 2184.7 2183.6 2182.6 2181.6 2180.5 2179.5 2178.5 2177.4 2176.4 2175.4 2174.3 2173.3 2172.3 2171.2 2171.2 2172.3 2173.3 2174.3 2175.4 2176.4 2177.4 2178.5 2179.5 2180.5 2181.6 2182.6 2183.6 2184.7 2185.7 2186.7 2187.8 2188.8 2189.8 2190.9 2191.9 2193 2194 2195 2196.1 2197.1 2198.1 2199.2 2200.2 2201.2 2202.3 2203.3 2204.3 2205.4 2206.4 2207.4 2208.5 2209.5 2210.5 2211.6 2212.6 2213.6 2214.7 2215.7 2216.7 2217.8 2218.8 2219.8 2220.9 2221.9 2223 2224 2225 2226.1 2227.1 2228.1 2229.2 2230.2 2231.2 2232.3 2233.3 2234.3 2235.4 2236.4 2237.4 2238.5 2239.5 2240.5 2241.6 2242.6 2243.6 2244.7 2245.7 2246.7 2247.8 2248.8 2249.8 2250.9 2251.9 2253 2254 2255 2256.1 2257.1 2258.1 2259.2 2260.2 2261.2 2262.3 2263.3 2264.3 2265.4 2266.4 2267.4 2268.5 2269.5 2270.5 2271.6 2272.6 2273.6 2274.7 2275.7 2276.7 2277.8 2278.8 2279.9 2280.9 2281.9 2283 2284 2285 2286.1 2287.1 2288.1 2289.2 2290.2 2291.2 2292.3 2293.3 2294.3 2295.4 2296.4 2297.4 2298.5 2299.5 2300.5 2301.6 2302.6 2303.6 2304.7 2305.7 2306.7 2307.8 2308.8 2309.9 2310.9 2311.9 2313 2314 2315 2316.1 2317.1 2318.1 2319.2 2320.2 2321.2 2322.3 2323.3 2324.3 2325.4 2326.4 2327.4 2328.5 2329.5 2330.5 2331.6 2332.6 2333.6 2334.7 2335.7 2336.7 2337.8 2338.8 2339.9 2340.9 2341.9 2343 2344 2345 2346.1 2347.1 2348.1 2349.2 2350.2 2351.2 2352.3 2353.3 2354.3 2355.4 2356.4 2357.4 2358.5 2359.5 2360.5 2361.6 2362.6 2363.6 2364.7 2365.7 2366.7 2367.8 2368.8 2369.9 2370.9 2371.9 2373 2374 2375 2376.1 2377.1
2375.8 2374.7 2373.7 2372.6 2371.6 2370.6 2369.5 2368.5 2367.4 2366.4 2365.4 2364.3 2363.3 2362.2 2361.2 2360.2 2359.1 2358.1 2357 2356 2355 2353.9 2352.9 2351.8 2350.8 2349.8 2348.7 2347.7 2346.6 2345.6 2344.6 2343.5 2342.5 2341.4 2340.4 2339.4 2338.3 2337.3 2336.2 2335.2 2334.2 2333.1 2332.1 2331 2330 2329 2327.9 2326.9 2325.8 2324.8 2323.8 2322.7 2321.7 2320.6 2319.6 2318.6 2317.5 2316.5 2315.4 2314.4 2313.4 2312.3 2311.3 2310.2 2309.2 2308.2 2307.1 2306.1 2305 2304 2303 2301.9 2300.9 2299.8 2298.8 2297.8 2296.7 2295.7 2294.6 2293.6 2292.6 2291.5 2290.5 2289.4 2288.4 2287.4 2286.3 2285.3 2284.2 2283.2 2282.1 2281.1 2280.1 2279 2278 2276.9 2275.9 2274.9 2273.8 2272.8 2271.7 2270.7 2269.7 2268.6 2267.6 2266.5 2265.5 2264.5 2263.4 2262.4 2261.3 2260.3 2259.3 2258.2 2257.2 2256.1 2255.1 2254.1 2253 2252 2250.9 2249.9 2248.9 2247.8 2246.8 2245.7 2244.7 2243.7 2242.6 2241.6 2240.5 2239.5 2238.5 2237.4 2236.4 2235.3 2234.3 2233.3 2232.2 2231.2 2230.1 2229.1 2228.1 2227 2226 2224.9 2223.9 2222.9 2221.8 2220.8 2219.7 2218.7 2217.7 2216.6 2215.6 2214.5 2213.5 2212.5 2211.4 2210.4 2209.3 2208.3 2207.3 2206.2 2205.2 2204.1 2203.1 2202.1 2201 2200 2198.9 2197.9 2196.9 2195.8 2194.8 2193.7 2192.7 2191.7 2190.6 2189.6 2188.5 2187.5 2186.5 2185.4 2184.4 2183.3 2182.3 2181.3 2180.2 2179.2 2178.1 2177.1 2176.1 2175 2174 2172.9 2171.9 2170.9 2169.8 2168.8 2168.8 2169.8 2170.9 2171.9 2172.9 2174 2175 2176.1 2177.1 2178.1 2179.2 2180.2 2181.3 2182.3 2183.3 2184.4 2185.4 2186.5 2187.5 2188.5 2189.6 2190.6 2191.7 2192.7 2193.7 2194.8 2195.8 2196.9 2197.9 2198.9 2200 2201 2202.1 2203.1 2204.1 2205.2 2206.2 2207.3 2208.3 2209.3 2210.4 2211.4 2212.5 2213.5 2214.5 2215.6 2216.6 2217.7 2218.7 2219.7 2220.8 2221.8 2222.9 2223.9 2224.9 2226 2227 2228.1 2229.1 2230.1 2231.2 2232.2 2233.3 2234.3 2235.3 2236.4 2237.4 2238.5 2239.5 2240.5 2241.6 2242.6 2243.7 2244.7 2245.7 2246.8 2247.8 2248.9 2249.9 2250.9 2252 2253 2254.1 2255.1 2256.1 2257.2 2258.2 2259.3 2260.3 2261.3 2262.4 2263.4 2264.5 2265.5 2266.5 2267.6 2268.6 2269.7 2270.7 2271.7 2272.8 2273.8 2274.9 2275.9 2276.9 2278 2279 2280.1 2281.1 2282.1 2283.2 2284.2 2285.3 2286.3 2287.4 2288.4 2289.4 2290.5 2291.5 2292.6 2293.6 2294.6 2295.7 2296.7 2297.8 2298.8 2299.8 2300.9 2301.9 2303 2304 2305 2306.1 2307.1 2308.2 2309.2 2310.2 2311.3 2312.3 2313.4 2314.4 2315.4 2316.5 2317.5 2318.6 2319.6 2320.6 2321.7 2322.7 2323.8 2324.8 2325.8 2326.9 2327.9 2329 2330 2331 2332.1 2333.1 2334.2 2335.2 2336.2 2337.3 2338.3 2339.4 2340.4 2341.4 2342.5 2343.5 2344.6 2345.6 2346.6 2347.7 2348.7 2349.8 2350.8 2351.8 2352.9 2353.9 2355 2356 2357 2358.1 2359.1 2360.2 2361.2 2362.2 2363.3 2364.3 2365.4 2366.4 2367.4 2368.5 2369.5 2370.6 2371.6 2372.6 2373.7 2374.7 2375.8
