ncols         298
nrows         32
xllcorner     100930
yllcorner     101000
cellsize      10
NODATA_value  -9999
2118.0438 2116.1770 2113.7315 2112.0846 2110.0548 2107.6301 2105.5805 2103.3921 2101.6708 2099.6609 2097.2114 2095.3046 2093.0334 2091.3442 2088.9890 2087.1351 2084.7849 2082.8277 2080.8210 2078.8664 2076.5471 2074.8220 2072.7976 2070.5403 2068.3687 2066.5696 2064.1023 2061.9694 2060.2604 2057.8775 2056.2025 2054.1321 2051.7570 2050.0346 2047.8648 2045.5442 2043.8191 2041.5103 2039.4380 2037.4618 2035.1833 2033.0243 2031.1421 2029.0888 2027.0033 2024.7781 2022.9408 2020.9192 2018.7450 2016.7298 2014.6661 2012.7579 2010.7108 2008.5956 2006.2866 2004.2263 2002.3796 2000.2567 1998.1989 1996.1560 1994.0161 1991.9877 1989.7261 1987.8212 1985.4159 1983.5996 1981.4839 1979.5192 1977.4659 1975.1780 1973.2219 1970.9794 1969.0743 1967.0946 1964.8122 1962.6546 1960.9420 1958.8978 1956.8462 1954.4627 1952.5989 1950.5141 1948.2635 1946.5061 1944.2064 1942.1727 1939.9351 1938.2873 1935.9136 1933.7783 1931.6245 1929.7548 1927.7838 1925.8525 1923.5519 1921.4076 1919.6155 1917.4716 1915.0335 1913.2404 1911.1707 1908.8328 1907.2153 1904.8562 1902.8872 1900.7711 1898.5152 1896.8483 1894.7301 1892.3985 1890.3465 1888.4606 1886.2591 1884.3472 1882.2500 1880.1136 1877.9385 1875.7886 1873.6525 1871.7858 1869.7907 1867.7989 1865.4104 1863.2901 1861.5036 1859.1737 1857.4954 1855.0700 1853.2692 1851.2702 1849.1639 1847.1585 1844.9640 1843.0650 1840.5531 1838.5212 1836.5695 1834.8103 1832.4474 1830.4250 1828.2044 1826.2578 1824.3278 1822.3453 1820.0596 1817.9150 1816.0927 1813.9544 1811.6325 1809.7754 1807.6663 1805.4465 1803.3408 1801.5048 1799.3765 1797.4096 1795.2367 1795.0281 1797.3781 1799.2929 1801.3597 1803.6519 1805.7724 1807.7236 1809.6006 1811.6845 1813.8547 1815.8398 1818.0551 1819.9865 1821.9540 1824.4564 1826.3489 1828.2016 1830.4742 1832.5963 1834.5682 1836.4723 1838.6727 1840.7493 1842.8247 1845.1233 1846.8394 1849.1417 1850.9126 1853.1867 1855.1210 1857.5189 1859.1568 1861.3588 1863.3417 1865.8359 1867.4779 1869.6566 1872.0329 1873.9193 1875.7543 1878.0894 1879.9862 1882.1763 1884.0340 1886.0702 1888.2054 1890.6015 1892.6094 1894.4721 1896.4976 1898.5850 1900.7630 1902.7185 1904.7875 1906.8159 1908.8905 1911.3430 1913.0880 1915.4781 1917.2021 1919.1698 1921.6798 1923.6620 1925.5405 1927.4419 1929.7011 1931.6390 1934.0937 1936.0260 1937.7891 1940.0827 1941.9619 1944.1706 1946.4850 1948.6038 1950.6606 1952.3590 1954.6913 1956.4169 1958.8869 1960.6005 1962.9442 1964.8408 1966.8462 1969.2934 1970.9412 1973.1665 1975.4697 1977.1190 1979.3582 1981.3255 1983.6368 1985.4978 1987.7821 1990.0162 1991.9535 1994.0423 1995.8394 1997.8985 2000.2056 2002.4120 2004.0795 2006.1441 2008.6078 2010.3374 2012.4264 2014.4351 2016.8131 2018.6297 2020.8794 2023.1323 2024.9087 2027.0968 2028.9497 2030.9383 2033.0064 2035.5218 2037.4354 2039.5989 2041.2645 2043.4051 2045.6294 2047.6304 2049.8252 2052.0481 2053.8656 2056.0192 2058.1821 2060.0807 2062.4065 2064.4955 2066.2664 2068.4999 2070.6977 2072.4195 2074.3807 2076.4976 2078.5216 2080.9100 2082.7593 2085.0815
2116.1251 2114.4850 2112.4363 2110.0397 2108.0070 2106.2362 2104.0840 2102.0023 2099.5485 2097.6359 2095.4961 2093.5632 2091.2466 2089.3913 2087.1706 2085.4577 2083.1166 2081.2185 2078.9532 2076.8160 2074.7771 2073.0054 2070.5698 2068.9269 2066.5207 2064.4667 2062.4166 2060.4477 2058.1216 2056.1754 2054.2561 2052.1891 2050.1664 2047.7444 2045.8355 2043.7230 2041.7606 2039.7997 2037.5447 2035.3709 2033.3546 2031.4266 2029.2729 2027.3915 2025.2988 2023.3120 2020.7723 2018.9214 2016.9592 2015.0082 2012.8744 2010.6968 2008.4676 2006.6062 2004.6355 2002.3982 2000.2379 1998.2649 1996.0719 1994.1753 1991.8803 1989.7017 1987.8465 1985.9188 1983.8992 1981.6117 1979.5754 1977.2239 1975.2443 1973.3818 1971.0471 1969.2215 1967.2790 1965.2386 1962.8720 1960.9481 1958.7865 1956.7065 1954.5364 1952.4632 1950.4531 1948.4390 1946.3395 1944.4092 1942.3034 1940.2312 1938.3079 1936.2109 1933.9704 1931.7441 1930.0131 1927.6464 1925.8967 1923.7997 1921.3776 1919.6511 1917.4484 1915.2522 1912.9947 1911.2831 1909.0761 1907.0811 1904.8183 1903.0140 1900.9752 1898.7647 1896.7962 1894.7747 1892.4403 1890.1944 1888.5174 1886.2625 1884.0034 1882.0998 1879.9062 1877.7352 1876.1300 1873.8621 1871.8915 1869.9043 1867.3772 1865.5265 1863.4601 1861.2379 1859.1793 1856.9968 1855.1391 1853.3077 1850.9089 1849.0654 1847.0911 1845.0392 1842.8165 1840.7009 1838.7261 1836.4573 1834.5473 1832.3377 1830.3565 1828.4037 1826.3998 1824.2893 1821.8085 1819.7096 1817.7709 1815.7980 1813.5274 1811.7303 1809.6934 1807.7391 1805.2335 1803.3695 1801.3066 1799.3861 1797.3757 1794.9178 1792.7793 1793.1558 1795.2967 1796.9926 1798.9662 1801.5156 1803.1306 1805.5623 1807.4322 1809.3704 1811.5452 1813.8465 1815.5824 1817.8760 1819.9444 1821.8909 1823.9084 1826.3248 1828.4561 1830.2774 1832.3488 1834.2324 1836.7253 1838.7590 1840.6156 1842.8021 1844.6064 1847.1305 1849.0191 1851.0099 1853.0820 1855.0310 1857.1413 1859.2783 1861.6242 1863.4035 1865.4261 1867.5915 1869.5683 1871.6089 1874.0792 1875.6836 1878.1091 1880.2376 1881.8735 1883.9921 1886.4748 1888.4840 1890.5944 1892.5329 1894.4442 1896.6642 1898.9431 1900.8779 1902.6359 1905.1083 1906.7499 1909.0786 1911.2711 1913.0912 1915.0605 1917.1595 1919.4709 1921.5455 1923.7621 1925.7219 1927.4927 1929.7185 1931.8736 1934.0543 1935.9202 1938.2680 1940.0642 1942.3787 1944.2324 1946.2790 1948.5250 1950.3542 1952.4795 1954.7269 1956.7419 1958.9979 1960.8306 1962.7387 1964.9516 1967.2526 1969.2666 1971.4722 1973.5305 1975.5220 1977.3106 1979.4268 1981.5824 1983.6805 1985.9400 1987.6911 1989.7521 1991.9363 1993.9732 1996.0560 1998.0742 2000.4240 2002.2595 2004.6574 2006.6472 2008.5177 2010.8421 2012.8548 2014.5483 2016.8442 2018.7429 2021.0945 2022.9337 2025.3131 2027.2877 2029.4240 2031.4112 2033.6190 2035.4898 2037.6566 2039.7938 2041.6830 2043.5962 2045.9269 2047.7713 2050.1274 2052.2699 2054.3323 2056.1860 2058.4315 2060.4810 2062.4384 2064.6443 2066.4648 2068.7054 2070.7595 2072.8098 2074.8429 2076.9919 2079.1694 2081.1584 2083.2031
2114.6252 2112.6174 2110.2766 2108.1909 2106.1729 2104.3574 2102.1470 2099.8566 2098.1689 2095.8286 2094.1010 2091.7352 2089.8587 2087.8473 2085.4844 2083.4689 2081.2984 2079.1531 2077.2060 2075.2261 2073.2590 2071.1854 2069.1116 2066.9667 2064.6155 2062.6969 2060.4700 2058.5320 2056.2514 2054.2829 2052.3517 2050.0575 2048.1518 2046.0430 2044.1654 2041.9832 2039.6795 2037.9487 2035.6955 2033.8739 2031.6195 2029.5324 2027.6295 2025.1157 2023.0765 2020.9656 2018.8719 2017.0771 2015.1138 2012.7232 2010.8971 2008.6605 2006.5677 2004.5480 2002.6005 2000.6261 1998.4074 1996.5010 1994.4025 1992.1245 1989.9160 1987.8237 1985.9807 1983.6467 1981.5401 1979.6803 1977.5975 1975.3284 1973.2225 1971.3059 1969.3055 1967.2075 1965.2266 1962.9606 1960.8341 1958.7028 1956.8544 1954.8748 1952.5469 1950.4043 1948.6863 1946.3887 1944.6194 1942.1065 1940.0292 1938.1172 1935.9926 1933.9455 1932.0820 1929.8037 1927.9544 1925.8397 1923.6619 1921.6256 1919.3267 1917.2536 1915.1083 1913.3163 1911.3063 1909.0789 1906.7986 1905.1274 1902.9897 1900.9050 1898.9353 1896.8174 1894.2984 1892.5823 1890.3392 1888.3120 1886.0864 1884.0426 1882.1635 1880.0941 1877.6993 1875.8784 1873.5591 1871.9052 1869.7227 1867.4671 1865.3933 1863.5513 1861.4031 1859.4271 1857.2486 1855.0897 1853.1967 1850.8577 1848.6772 1846.9384 1844.5965 1842.4281 1840.7597 1838.6765 1836.5445 1834.1084 1832.4313 1829.9471 1828.1733 1825.9410 1823.8815 1821.8780 1819.6362 1817.9347 1815.8405 1813.6381 1811.7204 1809.3690 1807.3104 1805.2648 1803.0357 1801.1528 1799.2773 1796.9420 1794.9150 1792.9217 1790.5976 1790.5464 1792.9250 1795.1264 1796.7983 1799.2770 1801.0574 1803.3561 1805.4261 1807.4305 1809.4716 1811.4903 1813.7084 1815.4056 1817.5204 1819.6371 1821.6890 1823.7270 1825.8061 1828.1167 1829.9536 1832.2969 1834.3045 1836.3019 1838.2637 1840.4658 1842.8188 1844.7172 1846.6986 1849.0108 1850.7494 1852.8866 1855.3310 1857.1808 1859.3889 1861.1273 1863.4673 1865.3570 1867.5371 1869.8015 1871.8878 1873.6876 1876.0175 1877.8073 1879.7839 1881.8500 1884.3407 1886.1653 1888.2167 1890.3386 1892.6957 1894.5106 1896.4872 1898.9304 1900.8943 1903.0877 1904.8810 1907.1220 1908.9347 1911.3623 1913.1485 1915.5346 1917.2071 1919.4612 1921.6050 1923.8006 1925.8813 1927.5398 1930.0780 1931.8101 1934.1591 1936.1415 1938.0452 1940.3820 1942.2314 1944.2871 1946.4302 1948.6507 1950.5076 1952.5261 1954.7691 1956.6666 1958.6697 1961.1071 1963.2191 1964.9692 1967.0042 1969.3372 1971.5761 1973.6435 1975.7320 1977.7827 1979.8225 1981.8270 1983.7068 1986.0759 1987.7286 1989.9909 1991.9278 1994.3240 1996.2603 1998.3397 2000.2499 2002.5895 2004.5659 2006.7987 2008.7959 2010.9397 2013.0370 2015.2080 2016.9413 2019.3069 2021.1572 2023.1369 2025.1261 2027.2853 2029.4847 2031.6838 2033.7890 2035.7028 2037.9450 2039.6548 2041.9142 2044.2389 2046.1952 2047.9587 2050.3864 2052.1674 2054.3262 2056.5859 2058.6950 2060.4864 2062.5034 2064.8870 2067.0068 2068.8675 2071.1703 2073.1631 2075.3288 2077.2907 2079.3129 2081.2708
2113.1377 2110.5771 2108.5233 2106.8843 2104.6089 2102.5191 2100.3268 2098.4033 2096.3724 2094.3282 2091.8635 2089.9507 2087.7808 2085.7361 2083.5951 2081.5575 2079.4881 2077.5288 2075.2280 2073.3659 2071.5262 2069.0623 2067.3427 2065.1222 2063.1228 2060.8605 2058.8226 2056.6620 2054.6406 2052.4443 2050.4968 2048.3705 2046.4193 2044.4618 2042.0777 2039.9914 2037.8607 2035.9124 2033.7188 2031.7717 2029.6840 2027.4339 2025.6207 2023.5502 2021.6298 2019.3028 2017.3010 2014.9750 2013.0046 2011.0930 2009.1590 2006.8883 2004.9365 2002.4814 2000.5025 1998.3905 1996.2923 1994.1391 1992.0724 1989.9909 1987.9273 1985.9574 1983.8472 1981.9991 1979.9778 1977.5754 1975.8805 1973.5600 1971.7151 1969.4811 1967.5421 1965.1355 1962.9141 1960.8702 1958.9580 1956.6994 1955.0293 1952.6124 1950.8563 1948.5147 1946.6736 1944.4850 1942.4121 1940.1909 1938.0453 1936.0666 1933.9221 1932.1445 1929.9429 1927.8518 1925.5797 1923.8920 1921.7971 1919.4089 1917.2346 1915.5576 1913.0161 1911.3805 1909.2689 1907.2497 1904.9650 1902.7039 1900.7513 1898.4833 1896.4741 1894.6049 1892.5261 1890.3604 1888.1526 1886.1993 1884.2131 1882.1958 1879.7928 1877.7726 1875.8445 1873.8334 1871.5283 1869.3817 1867.4674 1865.3165 1863.5366 1861.0898 1859.2998 1856.9971 1855.1226 1852.7259 1850.7652 1848.6235 1846.7943 1844.4811 1842.4211 1840.3270 1838.2361 1836.2951 1834.4712 1832.3694 1830.0532 1828.0534 1825.8224 1824.0459 1821.8686 1819.4754 1817.6754 1815.3471 1813.4982 1811.2398 1809.1994 1807.2806 1805.1876 1803.0733 1800.8587 1798.7224 1796.8397 1794.8604 1792.7479 1790.5458 1788.4008 1788.6663 1790.5653 1792.8698 1794.7765 1796.6733 1798.7537 1800.8647 1802.7941 1805.2519 1807.0853 1809.1154 1811.2501 1813.5226 1815.4531 1817.7871 1819.4699 1821.7183 1823.8784 1825.8878 1827.7859 1829.8824 1832.3112 1834.2420 1836.5208 1838.1820 1840.6386 1842.3273 1844.4432 1846.6147 1848.7849 1850.9727 1853.0647 1855.1562 1857.1669 1858.9751 1861.3119 1863.5141 1865.3055 1867.3715 1869.5939 1871.6040 1873.9104 1875.9538 1877.9984 1880.0890 1882.2093 1884.2835 1886.1740 1888.1267 1890.2328 1892.6963 1894.7551 1896.7870 1898.8027 1900.8307 1902.7788 1905.0887 1906.8855 1909.1810 1911.3503 1913.4477 1915.4667 1917.6571 1919.6943 1921.8206 1923.5302 1925.5919 1927.5659 1929.9041 1931.9206 1933.8291 1936.3217 1938.1141 1940.5231 1942.1546 1944.4274 1946.4622 1948.6779 1950.7670 1952.7984 1954.6138 1956.7504 1959.1110 1961.2903 1962.9584 1965.4341 1967.1022 1969.3332 1971.3605 1973.7234 1975.5989 1977.8649 1979.8756 1981.7940 1983.8820 1985.9614 1988.0180 1990.1372 1992.1322 1994.3168 1996.6158 1998.4069 2000.3700 2002.4548 2004.6117 2006.9100 2008.8963 2011.0373 2012.9582 2014.9325 2017.2374 2019.4505 2021.5217 2023.3149 2025.4740 2027.3918 2029.5951 2031.5525 2033.9227 2036.1607 2037.8698 2039.9457 2042.3846 2044.1220 2046.1273 2048.3217 2050.5832 2052.5121 2054.6022 2056.5916 2058.6536 2060.7942 2062.7949 2064.9613 2067.2117 2069.0559 2071.2844 2073.2154 2075.4471 2077.4055 2079.7259
2111.2324 2109.1897 2107.1433 2104.9378 2102.6923 2100.6159 2098.6443 2096.7503 2094.6295 2092.4859 2090.3793 2088.1663 2086.0459 2084.3032 2082.2281 2080.0396 2078.0187 2075.9976 2073.9093 2071.8242 2069.2906 2067.6318 2065.1312 2063.1698 2061.1508 2058.8620 2056.9684 2055.0608 2052.6316 2050.5833 2048.5559 2046.3841 2044.6280 2042.3586 2040.2286 2038.1750 2035.9653 2033.9611 2031.8986 2029.7058 2027.6072 2025.6148 2023.9055 2021.8077 2019.2716 2017.3411 2015.3759 2013.3337 2011.0192 2009.2827 2007.0294 2004.7886 2003.0567 2000.7358 1998.4783 1996.4489 1994.6859 1992.2862 1990.1601 1988.4385 1986.3392 1984.0333 1982.2486 1980.0608 1978.0173 1975.9450 1973.5553 1971.3661 1969.7152 1967.3987 1965.3824 1963.4080 1961.3669 1959.1123 1957.2300 1954.8615 1952.9480 1950.8135 1948.6027 1946.7628 1944.7670 1942.6656 1940.1951 1938.3866 1935.9760 1934.3218 1931.9265 1929.7153 1927.7040 1925.5375 1923.5320 1921.4278 1919.6509 1917.3504 1915.4284 1913.3856 1911.2338 1909.2120 1906.9177 1904.7673 1903.0714 1900.6281 1898.5925 1896.8077 1894.4060 1892.4188 1890.4508 1888.5320 1886.4403 1883.9660 1882.1314 1879.7740 1878.1123 1875.7936 1873.6101 1871.7100 1869.6346 1867.6759 1865.5569 1863.2267 1861.2916 1859.3198 1857.1976 1855.2128 1852.9117 1850.8912 1848.7608 1846.7519 1844.7620 1842.6974 1840.2969 1838.4917 1836.0717 1834.3565 1831.9980 1829.9645 1827.8694 1825.9024 1823.6626 1821.7824 1819.3081 1817.2564 1815.3078 1813.4665 1811.1352 1809.1212 1807.1641 1805.1000 1803.0103 1800.6700 1798.7788 1796.4074 1794.5626 1792.5274 1790.2442 1788.3996 1786.1100 1786.1744 1788.1245 1790.2814 1792.3450 1794.4013 1796.4788 1798.6633 1800.8162 1802.7121 1804.8965 1807.1987 1809.0228 1811.1504 1813.0674 1815.3645 1817.4881 1819.3080 1821.4843 1823.6583 1825.6589 1828.0690 1829.7462 1832.0697 1833.9331 1836.1570 1838.1964 1840.1724 1842.2470 1844.7333 1846.6015 1848.7688 1850.7587 1852.9826 1854.9697 1856.9472 1859.1643 1861.1409 1863.2574 1865.3448 1867.4868 1869.3702 1871.4440 1873.6498 1875.8564 1877.8588 1879.9753 1881.8891 1884.1435 1886.3896 1888.0796 1890.5103 1892.2287 1894.4693 1896.7527 1898.5586 1900.7569 1902.7573 1905.0559 1907.1200 1909.2665 1910.9805 1913.4648 1915.6091 1917.3116 1919.5824 1921.6508 1923.5622 1925.7452 1927.9710 1929.9103 1931.9469 1934.2526 1936.0315 1938.4719 1940.6099 1942.6706 1944.4158 1946.7612 1948.6154 1950.6126 1952.7799 1954.9233 1956.8690 1959.2298 1961.3876 1963.2122 1965.1207 1967.3747 1969.5426 1971.8424 1973.8884 1975.9919 1977.6391 1979.7612 1981.9815 1984.3151 1985.9940 1988.3165 1990.4088 1992.5539 1994.3209 1996.7503 1998.6633 2000.6365 2002.6454 2005.0841 2007.1915 2009.1968 2011.2315 2013.0977 2015.3759 2017.2285 2019.6162 2021.6546 2023.7980 2025.6599 2027.6175 2029.6907 2031.9297 2033.8912 2036.3219 2038.2975 2040.4277 2042.3603 2044.4923 2046.6469 2048.7990 2050.7608 2052.6005 2054.8527 2056.9384 2058.8828 2061.3110 2063.4303 2065.2814 2067.5182 2069.3099 2071.5126 2073.5414 2075.8608 2077.7879
2109.2441 2107.1814 2105.1655 2103.4068 2101.3116 2098.9460 2097.1436 2094.6893 2092.9725 2090.7475 2088.6125 2086.5179 2084.4455 2082.4758 2080.0364 2078.0199 2076.0450 2074.1986 2071.8746 2069.5447 2067.6347 2065.4032 2063.2990 2061.6654 2059.3723 2057.1498 2055.2107 2052.9228 2051.1503 2049.1413 2046.9672 2044.7195 2042.7588 2040.4615 2038.3005 2036.3753 2034.4820 2032.2009 2030.2499 2028.3026 2025.7784 2024.1337 2021.6223 2019.8722 2017.6489 2015.3560 2013.5525 2011.4123 2009.0701 2007.1403 2005.2700 2002.9263 2000.8630 1998.7974 1996.9416 1994.7416 1992.7031 1990.5489 1988.5691 1986.4940 1984.1676 1982.3843 1980.2445 1978.0939 1975.9546 1973.7888 1971.8021 1969.4449 1967.7670 1965.5351 1963.3554 1961.2608 1959.2380 1956.8867 1954.9641 1952.9914 1950.8182 1948.9592 1946.4735 1944.6716 1942.6955 1940.4018 1938.2318 1936.4504 1934.1958 1932.0645 1930.0467 1927.9357 1926.0287 1923.5580 1921.8084 1919.3357 1917.6161 1915.3514 1913.4683 1911.2297 1909.1074 1907.0609 1905.0769 1903.0073 1900.7063 1898.8187 1896.4520 1894.5793 1892.2118 1890.1771 1888.2742 1886.0190 1884.0667 1881.9359 1879.7247 1877.8022 1875.6176 1873.8711 1871.6850 1869.7170 1867.6178 1865.1961 1863.0348 1861.2396 1859.0131 1856.8932 1854.9179 1852.9234 1850.7721 1848.7086 1846.3360 1844.6850 1842.2626 1840.1128 1838.2759 1836.2675 1834.0748 1831.9624 1829.6611 1827.6726 1825.6728 1823.5694 1821.4949 1819.4906 1817.1161 1815.3757 1812.9366 1810.8870 1808.8159 1807.0746 1804.6292 1802.8180 1800.5819 1798.7093 1796.6655 1794.2602 1792.5082 1790.3410 1788.3619 1786.0624 1784.1507 1783.9905 1786.0202 1787.9654 1790.0018 1792.4904 1794.4739 1796.5920 1798.5033 1800.8336 1802.6351 1804.5954 1806.7663 1808.8869 1810.8894 1812.9464 1815.4416 1817.2044 1819.5036 1821.4603 1823.5282 1825.8267 1827.9953 1829.8881 1831.7891 1833.7949 1835.9867 1838.3583 1840.1415 1842.2077 1844.5443 1846.4645 1848.6113 1850.9462 1852.8731 1855.1237 1856.9453 1859.2046 1861.2253 1863.4277 1865.2808 1867.3954 1869.6507 1871.7681 1873.8638 1875.9590 1878.0545 1879.8417 1881.8988 1884.0379 1886.3623 1888.4772 1890.4314 1892.5733 1894.4781 1896.5126 1898.8369 1900.6086 1903.0329 1904.8480 1907.2776 1909.1917 1911.4400 1913.0789 1915.5975 1917.2660 1919.3456 1921.5303 1923.6017 1925.6208 1927.7736 1929.7937 1931.9022 1934.2874 1936.1264 1938.1831 1940.3877 1942.4358 1944.4339 1946.8971 1948.6157 1950.7593 1952.7654 1954.9017 1957.2965 1959.2851 1961.1072 1963.5700 1965.6922 1967.5898 1969.8597 1971.7362 1973.8562 1975.6958 1977.9490 1980.1743 1982.1459 1984.2895 1986.3573 1988.6217 1990.3487 1992.3879 1994.7267 1996.5444 1998.9892 2000.7283 2002.8807 2005.2205 2007.3142 2009.1304 2011.4687 2013.4876 2015.3038 2017.5675 2019.9009 2021.9462 2024.0716 2025.9290 2027.9623 2030.2058 2032.1857 2034.1813 2036.3462 2038.4554 2040.4222 2042.5921 2044.6487 2046.8667 2048.9234 2050.9540 2053.1804 2055.4013 2057.2728 2059.3354 2061.2025 2063.2989 2065.8273 2067.8100 2069.6583 2071.9013 2074.1709 2076.1780
2107.8313 2105.3730 2103.7125 2101.2776 2099.2803 2097.1951 2095.1089 2093.1475 2090.8045 2089.0043 2086.9898 2084.5675 2082.7429 2080.4146 2078.5279 2076.1374 2074.2854 2072.1540 2070.0142 2068.2346 2065.7733 2063.9285 2061.6804 2059.5931 2057.6267 2055.5242 2053.3918 2051.0377 2049.0034 2047.0804 2044.8800 2043.1635 2040.6887 2038.7059 2036.5097 2034.7735 2032.6050 2030.2682 2028.4501 2026.0587 2024.0170 2022.1450 2019.8367 2018.0607 2015.7376 2013.5592 2011.7576 2009.5750 2007.1906 2005.3071 2003.0878 2001.3583 1999.0656 1996.8423 1994.6439 1992.5223 1990.8005 1988.3469 1986.5074 1984.3997 1982.1611 1980.1249 1978.2804 1976.2930 1973.8274 1971.9363 1969.5632 1967.4948 1965.7434 1963.5285 1961.5534 1959.3058 1957.1794 1954.9750 1952.8196 1951.2131 1948.8416 1946.8521 1944.8489 1942.4104 1940.7303 1938.2963 1936.1693 1934.4326 1932.3484 1930.3119 1928.1393 1925.8863 1923.7829 1921.6778 1919.6985 1917.7121 1915.3703 1913.1806 1911.0635 1909.2700 1907.1968 1904.9379 1903.0392 1900.7372 1898.8274 1896.6538 1894.5960 1892.7044 1890.2042 1888.0595 1886.1219 1884.1995 1882.0509 1879.8847 1877.7919 1875.7436 1873.7228 1871.6290 1869.2811 1867.5336 1865.3144 1863.2961 1860.9413 1859.1488 1856.8760 1854.9201 1852.8228 1850.6419 1848.6465 1846.5170 1844.6109 1842.2484 1840.1146 1838.3588 1835.8120 1834.1771 1831.9035 1829.9182 1827.4717 1825.7179 1823.6005 1821.3708 1819.4736 1817.3973 1815.0305 1813.1727 1811.0309 1808.9339 1807.0205 1804.6939 1802.8453 1800.2926 1798.6106 1796.2097 1794.1248 1791.9915 1790.0037 1787.9751 1785.7865 1783.7062 1781.4734 1781.5926 1783.6196 1786.0947 1787.7962 1789.9398 1792.2035 1794.0860 1796.1560 1798.6282 1800.4339 1802.7505 1804.8853 1806.8530 1808.7612 1811.1593 1813.1839 1815.2053 1817.0723 1819.1470 1821.2537 1823.5691 1825.7925 1827.8318 1829.8250 1831.8462 1833.7280 1835.8964 1838.2487 1840.0674 1842.2212 1844.3039 1846.4906 1848.7396 1850.4469 1852.7888 1855.0514 1856.7304 1858.8303 1861.2561 1863.3954 1865.1936 1867.4285 1869.4535 1871.7856 1873.4567 1875.5746 1877.8686 1880.1331 1881.8772 1884.0677 1886.0524 1888.2599 1890.2141 1892.6051 1894.7784 1896.6978 1898.6623 1900.8342 1902.7373 1905.0834 1907.0605 1908.9420 1911.0304 1913.1214 1915.6299 1917.3721 1919.6571 1921.5681 1923.6665 1926.0003 1928.0574 1930.0995 1931.9435 1934.3540 1936.3052 1938.4174 1940.5946 1942.8129 1944.7213 1946.7808 1949.0921 1950.8522 1952.8982 1955.1313 1957.3175 1959.5718 1961.6444 1963.4095 1965.4624 1967.9044 1969.7672 1971.8675 1974.0644 1976.1055 1978.2389 1980.1809 1982.4862 1984.5682 1986.3075 1988.6627 1990.7158 1992.7131 1994.9960 1996.7537 1998.7906 2001.1538 2003.3899 2005.1521 2007.6001 2009.6575 2011.6648 2013.4775 2015.7738 2017.6586 2019.8360 2021.8535 2023.9303 2026.2023 2028.3254 2030.5736 2032.2725 2034.3183 2036.7018 2038.9290 2040.9469 2043.1028 2044.8082 2047.0555 2049.0374 2051.1543 2053.3899 2055.2699 2057.3365 2059.3871 2061.6891 2063.6182 2066.0767 2067.7801 2070.0877 2072.0576 2074.1061
2106.0652 2103.9047 2101.7762 2099.8823 2097.3696 2095.6768 2093.1954 2091.2773 2089.4478 2086.9143 2085.0302 2082.8033 2080.8107 2078.9264 2076.7193 2074.4708 2072.6258 2070.3736 2068.1257 2066.3882 2063.8890 2061.8492 2059.9967 2057.9786 2055.6590 2053.7995 2051.7777 2049.3438 2047.4379 2045.3728 2043.4029 2040.8977 2038.9553 2037.0433 2034.5877 2032.8427 2030.5425 2028.7077 2026.4675 2024.5000 2022.1311 2020.0972 2017.9745 2016.1890 2014.0565 2011.5680 2009.7997 2007.3679 2005.5708 2003.5922 2001.3606 1999.2469 1996.9905 1995.1341 1992.8842 1990.8197 1988.5592 1986.5789 1984.7592 1982.4815 1980.3978 1978.5402 1975.9996 1974.1307 1971.8653 1969.9523 1967.6315 1965.9337 1963.6612 1961.3295 1959.4547 1957.3777 1955.1470 1953.3539 1951.0075 1948.8714 1946.7823 1944.7625 1942.5798 1940.7410 1938.5176 1936.4725 1934.1820 1932.3513 1929.9258 1927.9974 1926.1370 1923.9021 1921.7184 1919.8923 1917.6862 1915.7165 1913.3074 1911.2894 1909.1289 1907.0068 1905.1686 1902.8741 1900.7406 1898.9408 1896.5560 1894.4503 1892.6221 1890.3357 1888.1362 1886.3925 1883.9536 1881.8338 1879.7902 1878.0367 1875.7975 1873.5999 1871.4596 1869.4254 1867.4289 1865.4434 1862.9716 1860.8445 1859.2099 1856.9995 1854.7713 1852.8495 1850.6206 1848.3246 1846.6092 1844.3129 1842.2678 1840.2689 1838.0651 1836.1430 1833.7542 1831.7176 1829.6928 1827.6207 1825.3053 1823.3573 1821.1287 1819.2341 1817.3714 1814.8935 1813.1434 1810.7358 1808.7295 1806.9000 1804.3428 1802.4275 1800.3428 1798.1360 1796.0367 1793.8941 1791.9470 1789.8746 1787.6239 1785.8557 1783.8416 1781.3476 1779.3156 1779.3998 1781.6221 1783.5529 1785.7111 1787.7602 1790.0062 1792.2673 1793.8970 1796.4071 1798.4909 1800.4249 1802.5928 1804.5098 1806.6472 1808.9789 1810.8439 1812.8789 1815.0716 1817.2528 1819.2590 1821.3507 1823.6366 1825.6449 1827.6850 1829.8875 1831.7372 1833.7401 1836.1817 1837.8461 1840.1285 1842.3468 1844.5891 1846.4650 1848.7102 1850.6983 1852.6459 1855.0164 1856.8681 1858.9071 1861.1475 1863.1988 1865.0381 1867.5520 1869.6914 1871.7974 1873.8607 1875.9665 1878.0394 1879.8306 1881.8430 1884.2770 1886.2405 1888.5049 1890.1578 1892.3555 1894.4082 1896.7266 1898.7132 1901.0036 1903.0731 1904.9011 1907.0226 1909.2935 1911.2542 1913.5397 1915.3344 1917.7362 1919.7821 1921.6746 1924.0692 1926.1253 1928.0661 1929.9749 1932.3224 1934.1417 1936.4023 1938.3664 1940.6905 1942.8303 1944.8947 1946.8578 1948.8229 1950.9187 1952.9745 1955.3919 1957.3951 1959.4685 1961.5564 1963.5085 1965.8304 1967.6274 1970.1226 1972.0521 1974.0651 1976.4147 1978.1107 1980.2030 1982.2876 1984.4254 1986.4566 1988.8139 1990.7220 1993.1736 1994.9335 1997.2320 1999.1156 2001.2092 2003.3216 2005.6194 2007.4166 2009.4677 2011.9599 2013.6774 2015.9772 2017.9030 2020.2419 2022.4137 2024.1962 2026.6054 2028.3507 2030.4217 2032.6666 2034.7785 2037.0599 2039.1552 2041.2614 2043.0059 2045.2739 2047.1756 2049.3531 2051.6334 2053.5703 2055.9821 2057.6737 2060.1599 2062.0562 2063.9786 2066.1307 2068.1655 2070.5769 2072.4480
2104.1137 2102.1479 2099.8287 2098.1206 2095.6230 2093.7755 2091.4272 2089.3940 2087.3275 2085.5378 2083.0875 2081.1314 2079.2321 2076.9285 2074.9931 2073.0311 2070.9121 2068.7746 2066.7484 2064.2580 2062.5487 2060.1115 2058.1828 2055.8473 2053.8371 2052.0738 2049.6933 2047.6982 2045.7177 2043.3763 2041.3555 2039.0977 2037.1175 2035.1297 2032.9337 2031.0566 2028.7684 2026.7923 2024.7350 2022.2816 2020.4966 2018.1369 2016.2076 2014.1012 2011.9309 2009.7541 2008.0029 2005.7540 2003.5094 2001.2934 1999.2518 1997.5183 1995.0108 1993.3159 1990.9224 1988.9719 1987.0900 1984.5450 1982.8827 1980.4508 1978.5320 1976.2942 1974.4753 1972.0277 1970.0108 1968.1283 1965.6315 1963.8523 1961.4487 1959.7219 1957.5757 1955.3404 1953.5470 1951.2332 1948.8606 1947.0510 1944.8603 1942.6226 1940.5142 1938.7512 1936.7326 1934.2319 1932.5483 1930.1517 1927.9813 1926.1412 1923.8002 1921.9392 1919.6492 1917.6192 1915.6822 1913.3691 1911.4263 1909.1796 1907.2688 1904.9935 1902.9853 1901.0194 1898.5630 1896.5982 1894.5485 1892.7228 1890.4141 1888.5189 1886.0071 1884.3324 1881.8068 1880.1080 1877.7811 1875.6960 1873.8195 1871.3673 1869.5790 1867.1516 1865.0774 1862.9701 1861.2830 1859.0500 1857.0751 1854.9219 1852.6038 1850.7484 1848.7268 1846.2575 1844.3564 1842.2802 1840.3027 1838.1165 1835.8837 1833.7726 1831.8744 1829.8390 1827.7283 1825.5054 1823.3879 1821.0934 1819.3525 1817.2136 1815.1197 1812.6967 1810.5561 1808.8618 1806.7565 1804.3367 1802.3585 1800.3033 1798.4048 1796.1252 1794.0320 1791.6755 1789.5975 1787.5326 1785.3556 1783.2515 1781.3169 1779.3238 1777.3134 1777.4379 1779.1825 1781.5159 1783.6949 1785.5750 1787.7195 1789.7560 1792.1187 1794.0146 1796.0444 1798.3872 1800.2970 1802.2951 1804.5145 1806.6714 1808.5148 1810.9943 1812.6262 1815.1734 1817.2792 1818.9262 1821.2134 1823.1898 1825.1869 1827.4871 1829.7308 1831.6777 1834.0301 1836.1172 1837.8886 1840.0730 1842.1191 1844.3071 1846.3062 1848.7041 1850.6476 1852.4724 1855.0208 1856.9380 1859.0332 1861.2385 1863.3856 1865.2414 1867.2609 1869.2663 1871.3492 1873.5688 1875.6086 1877.7934 1879.8290 1881.9471 1884.1872 1886.0229 1888.4624 1890.3809 1892.4210 1894.4848 1896.4611 1898.5865 1900.8176 1903.1721 1904.9649 1907.2736 1909.1334 1911.2211 1913.5871 1915.3758 1917.8305 1919.6165 1921.9192 1924.1155 1926.0413 1928.1379 1930.4214 1932.3243 1934.6159 1936.5806 1938.6939 1940.9605 1942.9038 1944.6717 1947.0845 1948.9996 1951.0014 1953.2487 1955.5156 1957.4868 1959.5194 1961.6699 1963.9291 1965.8947 1967.9231 1970.0356 1972.0021 1974.4614 1976.1964 1978.5526 1980.7732 1982.5972 1984.8996 1986.9016 1988.9615 1991.1610 1992.8835 1995.3914 1997.3775 1999.4243 2001.4849 2003.5680 2005.6596 2007.6717 2009.7564 2011.8220 2014.0310 2016.2192 2018.3411 2020.2571 2022.5977 2024.5588 2026.5736 2028.8884 2030.6521 2033.0129 2035.0411 2037.0546 2039.2744 2041.1958 2043.6830 2045.5474 2047.7788 2049.4948 2051.9823 2053.6953 2056.2351 2058.0826 2060.3555 2062.5303 2064.5340 2066.7340 2068.4540 2070.8842
2102.3859 2100.5790 2098.0800 2096.0563 2094.0247 2091.8250 2089.8635 2088.0350 2085.6459 2083.6005 2081.5297 2079.5093 2077.5161 2075.1843 2072.8935 2071.0502 2069.0478 2066.7888 2064.9271 2062.8377 2060.7500 2058.4122 2056.2637 2053.9954 2052.1209 2049.7664 2048.0589 2045.9405 2043.8923 2041.3754 2039.6500 2037.3970 2035.3523 2033.0568 2030.9646 2029.2627 2027.0657 2025.0662 2022.5583 2020.4056 2018.7450 2016.4313 2014.2070 2012.3412 2010.1809 2008.0045 2005.7577 2003.9420 2001.9256 1999.4512 1997.2865 1995.3931 1993.4552 1991.2127 1988.8735 1987.2194 1984.7130 1982.9413 1980.5948 1978.8709 1976.5707 1974.5996 1972.1396 1970.3848 1968.3351 1965.9886 1964.0841 1961.8330 1959.5424 1957.8427 1955.3936 1953.5505 1951.1973 1949.1220 1946.9109 1945.2627 1942.9987 1940.6910 1938.6948 1936.8428 1934.2893 1932.2751 1930.1656 1928.3920 1926.0509 1924.1800 1921.8308 1919.6760 1917.5229 1915.4904 1913.5945 1911.6375 1909.2937 1907.4412 1905.2318 1902.9605 1900.8783 1898.9305 1896.8985 1894.4701 1892.7493 1890.5486 1888.1497 1886.0864 1884.3726 1881.8102 1880.0126 1877.8425 1875.8679 1873.6453 1871.5582 1869.4167 1867.2440 1865.1783 1863.3506 1861.1489 1858.7469 1856.6466 1854.7972 1852.6495 1850.4447 1848.4678 1846.3066 1844.0470 1842.0614 1840.1848 1838.0700 1835.6184 1833.8468 1831.8066 1829.5662 1827.4273 1825.3790 1823.0135 1821.0486 1819.1502 1816.7886 1815.0740 1812.5268 1810.6294 1808.5227 1806.2332 1804.2988 1802.0720 1799.9503 1797.8596 1795.9980 1793.9029 1791.5956 1789.5217 1787.7555 1785.4088 1783.3052 1781.4216 1779.1908 1777.0723 1775.0628 1774.8255 1777.1831 1779.0935 1781.2653 1783.2851 1785.4713 1787.8051 1789.8398 1791.9651 1793.7965 1796.0812 1798.2867 1799.9165 1802.3228 1804.4307 1806.3309 1808.4421 1810.4165 1812.6841 1815.0534 1817.1488 1819.2653 1820.9979 1823.3576 1825.4805 1827.2059 1829.6458 1831.7617 1833.8181 1835.8013 1837.8421 1839.9138 1842.2169 1844.2230 1846.4745 1848.4502 1850.4046 1852.4512 1854.9331 1856.7916 1858.8748 1861.0383 1863.0088 1865.4218 1867.5088 1869.2428 1871.6609 1873.7929 1875.6257 1877.6493 1880.1726 1882.0024 1884.0214 1886.2906 1888.3917 1890.3408 1892.4723 1894.7898 1896.9212 1898.8622 1901.0579 1903.1075 1905.1822 1907.2686 1909.1378 1911.5478 1913.3146 1915.8148 1917.7407 1920.0106 1922.1759 1924.1737 1926.3009 1928.3790 1930.2426 1932.3028 1934.6638 1936.8559 1938.5706 1940.7004 1942.8536 1944.8147 1946.9109 1949.3449 1951.3407 1953.5874 1955.5219 1957.7966 1959.6795 1961.7372 1963.8420 1965.8035 1968.0010 1970.2769 1972.2710 1974.3844 1976.6870 1978.5339 1980.7902 1982.7445 1985.1633 1987.0397 1988.8779 1991.2656 1993.4302 1995.1998 1997.4364 1999.4332 2001.6997 2004.0287 2005.6705 2008.2540 2010.0607 2012.3842 2014.5505 2016.5433 2018.5065 2020.4342 2022.8960 2024.7640 2026.8074 2029.0142 2030.9148 2033.4552 2035.1158 2037.2275 2039.6053 2041.4586 2043.6247 2046.0160 2047.7100 2050.1618 2052.0412 2054.4179 2056.2892 2058.4193 2060.4894 2062.4299 2064.5112 2066.6806 2068.9904
2100.6346 2098.8441 2096.8042 2094.6577 2092.4667 2090.2518 2088.1049 2086.1262 2083.7603 2081.7163 2079.7199 2077.4838 2075.3586 2073.4530 2071.4613 2069.1454 2067.2105 2064.7985 2063.1655 2061.0139 2058.8390 2056.5887 2054.3253 2052.2053 2050.3486 2048.0380 2046.2301 2044.1004 2041.7220 2039.8421 2037.5192 2035.3959 2033.2497 2031.5206 2029.4127 2026.9851 2024.9948 2022.8863 2020.6707 2018.9935 2016.4960 2014.6115 2012.4356 2010.1360 2007.9999 2006.2290 2003.9605 2001.8462 1999.8026 1997.5330 1995.3804 1993.3304 1991.4445 1989.1144 1987.1975 1985.2515 1983.1570 1980.7170 1979.0098 1976.8627 1974.3766 1972.3144 1970.2319 1968.5050 1966.0589 1964.0647 1962.1404 1960.1169 1958.0024 1955.8155 1953.6196 1951.5162 1949.4414 1947.2973 1944.9434 1942.9580 1940.6979 1938.7887 1936.9299 1934.7727 1932.5724 1930.6374 1928.3788 1926.1645 1924.2655 1922.0432 1919.6877 1917.9691 1915.6265 1913.4068 1911.5249 1909.5276 1907.2691 1904.9817 1903.0568 1900.9937 1898.7703 1896.6147 1894.6995 1892.3986 1890.4868 1888.1357 1886.2600 1884.2034 1882.0122 1880.0409 1877.6501 1875.6416 1873.4390 1871.6188 1869.2171 1867.5269 1865.4793 1863.2411 1860.9209 1858.6866 1856.7697 1854.8625 1852.5458 1850.2747 1848.2782 1846.5372 1844.2229 1841.8632 1839.8594 1837.9651 1835.7384 1833.5541 1831.3937 1829.3743 1827.2780 1825.1777 1822.9538 1821.0264 1818.9418 1816.9883 1814.7809 1812.7864 1810.6762 1808.6632 1806.4601 1804.0017 1802.1489 1799.9966 1798.1216 1795.8054 1793.4893 1791.8388 1789.4084 1787.4181 1785.1120 1783.3633 1781.3205 1778.9024 1776.8958 1774.6289 1772.5022 1772.8523 1774.8215 1776.9590 1779.1206 1781.3452 1783.2801 1785.4538 1787.3050 1789.3068 1791.3940 1793.6104 1795.7404 1798.1828 1800.0641 1801.9719 1804.4349 1806.5752 1808.6949 1810.6908 1812.5874 1814.8075 1817.0391 1818.8390 1820.9878 1823.2660 1825.2162 1827.5171 1829.4620 1831.5722 1833.9351 1836.0117 1837.8419 1839.9587 1842.0017 1844.0409 1846.3676 1848.3404 1850.6226 1852.8208 1854.9506 1856.9709 1858.9177 1860.8897 1863.2822 1865.4771 1867.5225 1869.2423 1871.5347 1873.5821 1875.7717 1878.0189 1880.1975 1882.1130 1884.2136 1886.5142 1888.3493 1890.5084 1892.3503 1894.7944 1896.9486 1898.7559 1900.7530 1902.9827 1905.3431 1907.3408 1909.5391 1911.6701 1913.8319 1915.7612 1917.7246 1920.0032 1921.7822 1923.9307 1926.3719 1928.3143 1930.6266 1932.2922 1934.7285 1936.5755 1938.6080 1940.7700 1943.2305 1945.0494 1947.3126 1949.5775 1951.3282 1953.7221 1955.7098 1957.5450 1959.8797 1962.0362 1964.0295 1965.9332 1968.2449 1970.3629 1972.2651 1974.4406 1976.8407 1978.8621 1981.0991 1983.0115 1985.0082 1987.2157 1989.1475 1991.2345 1993.4041 1995.3985 1997.7826 1999.8380 2002.0891 2003.8452 2006.0003 2008.0575 2010.3681 2012.4438 2014.4091 2016.7335 2018.6735 2020.6111 2023.0665 2024.8444 2027.1256 2029.2233 2031.4826 2033.5429 2035.7373 2037.8317 2039.8963 2042.0746 2043.9463 2046.3052 2048.2734 2050.4099 2052.2087 2054.5845 2056.3808 2058.6567 2061.0400 2062.9884 2065.1738 2067.2103
2099.0034 2096.8840 2094.8338 2092.8169 2090.6499 2088.5387 2086.3637 2084.3531 2082.3007 2080.1587 2078.1915 2075.8987 2073.6063 2071.7881 2069.7827 2067.2593 2065.1272 2063.3024 2060.8791 2059.2057 2057.1542 2054.7055 2052.5236 2050.7653 2048.4302 2046.6241 2044.4709 2042.3563 2040.2771 2037.7128 2035.6314 2033.6876 2031.5580 2029.3035 2027.3422 2025.1334 2023.0163 2021.0747 2018.8458 2016.8993 2014.7766 2012.8880 2010.4061 2008.6480 2006.2135 2004.2259 2002.1382 2000.2133 1997.6916 1995.6437 1993.7524 1991.6112 1989.2673 1987.3501 1985.4980 1983.1258 1981.1444 1979.0965 1976.7638 1974.8559 1972.8920 1970.3714 1968.3681 1966.5774 1964.2227 1962.1255 1960.2436 1957.7860 1956.0066 1953.8174 1951.5084 1949.3533 1947.3699 1945.2794 1943.2886 1941.1306 1939.0808 1936.6704 1934.5927 1932.5121 1930.2962 1928.2074 1926.4150 1924.1894 1922.0595 1919.8889 1917.6506 1915.9436 1913.5882 1911.6419 1909.3047 1907.2405 1905.4321 1903.1098 1901.2705 1898.9031 1896.6411 1894.9220 1892.8195 1890.5887 1888.1710 1886.1133 1883.9512 1882.1359 1879.9940 1877.8815 1875.8006 1873.7095 1871.5537 1869.3228 1867.5299 1865.2790 1862.9036 1860.7826 1858.9979 1856.9876 1854.8349 1852.8271 1850.6286 1848.2466 1846.1382 1844.2561 1841.9919 1839.9769 1837.7418 1835.5143 1833.8385 1831.4221 1829.6633 1827.4665 1825.2862 1823.0665 1820.8284 1819.0443 1816.7368 1814.6147 1812.3942 1810.4974 1808.5249 1806.3237 1804.3198 1801.8129 1799.7031 1797.9135 1795.9652 1793.7129 1791.6921 1789.4437 1787.1300 1785.3729 1782.8893 1781.0715 1779.0965 1776.9287 1774.7292 1772.6682 1770.2948 1770.2717 1772.6282 1774.6296 1776.9232 1779.0327 1781.0708 1783.0440 1785.1506 1787.1126 1789.5275 1791.5345 1793.4065 1795.7668 1797.7942 1799.8385 1802.0123 1804.1046 1806.2890 1808.3420 1810.6062 1812.3947 1814.8746 1816.8444 1819.0523 1821.1027 1823.1089 1825.3480 1827.1961 1829.3957 1831.3943 1833.4115 1835.7596 1837.9190 1840.0213 1842.3088 1844.0010 1846.1713 1848.3848 1850.5261 1852.5100 1854.7032 1856.8062 1859.0172 1860.8656 1863.2753 1865.0124 1867.2089 1869.3797 1871.7787 1873.8504 1875.6338 1877.9294 1879.7958 1881.9965 1884.2908 1886.1785 1888.6425 1890.4899 1892.5090 1894.6713 1896.8438 1899.0954 1901.0203 1903.1779 1905.1322 1907.2346 1909.5365 1911.7157 1913.8642 1915.6582 1917.9384 1920.0461 1922.1678 1924.2144 1926.5495 1928.3215 1930.5281 1932.6522 1934.8747 1936.7012 1938.7951 1941.2226 1943.1816 1945.1157 1947.3884 1949.4525 1951.5944 1953.9503 1956.0325 1958.0417 1960.1388 1962.1889 1964.2818 1966.1615 1968.4712 1970.7155 1972.6181 1974.7524 1976.7068 1978.8511 1981.0737 1983.2195 1985.4094 1987.2004 1989.7266 1991.8221 1993.5851 1995.6156 1998.1561 2000.0654 2002.3006 2004.2969 2006.5456 2008.6301 2010.4140 2012.7576 2014.8613 2016.9203 2019.1530 2021.2067 2023.3590 2025.4060 2027.2898 2029.4437 2031.5944 2033.9425 2036.0585 2037.7129 2040.2148 2042.1302 2044.4394 2046.4259 2048.3456 2050.5997 2052.5016 2054.9910 2056.8755 2058.8731 2061.0697 2063.3057 2065.4862
2097.4235 2094.9535 2092.9009 2090.8963 2088.6894 2086.9404 2084.8266 2082.4970 2080.3641 2078.4332 2076.3867 2073.9912 2071.9497 2070.0887 2067.9522 2065.5426 2063.4973 2061.2646 2059.5651 2057.4620 2055.2448 2053.1609 2050.9384 2048.6323 2046.8695 2044.4205 2042.3026 2040.4730 2038.4477 2036.3352 2034.2211 2032.0582 2029.6324 2027.6236 2025.3426 2023.5430 2021.5220 2019.0331 2016.9652 2015.0910 2012.9084 2011.0167 2008.8602 2006.3615 2004.7015 2002.2216 2000.2867 1998.3062 1995.8963 1993.8115 1991.7307 1989.9291 1987.5680 1985.6026 1983.2315 1981.1371 1979.1952 1976.8475 1975.1000 1972.8975 1970.8410 1968.7929 1966.5217 1964.2515 1962.4355 1960.3780 1958.0406 1956.1232 1954.0246 1951.9207 1949.8308 1947.5102 1945.4903 1943.5509 1941.0320 1939.0962 1937.1733 1934.8644 1932.6780 1930.7417 1928.6819 1926.5681 1924.3103 1922.4396 1919.8813 1917.8526 1915.9316 1913.5301 1911.6265 1909.3887 1907.5917 1905.1789 1903.2907 1901.1163 1899.0162 1896.8332 1894.7454 1892.8964 1890.5085 1888.4872 1886.4951 1884.3640 1882.2447 1880.1494 1878.0533 1875.6305 1873.8644 1871.6374 1869.2755 1867.4393 1865.1756 1863.3116 1860.8473 1859.0188 1856.8102 1854.6325 1852.5368 1850.4795 1848.4574 1846.0203 1843.9157 1842.0975 1840.0508 1837.9050 1835.6055 1833.5795 1831.6376 1829.6124 1827.1895 1825.3281 1822.8168 1821.0779 1818.9920 1816.7472 1814.4701 1812.6431 1810.4282 1808.3604 1806.2870 1804.0087 1802.0884 1799.9510 1797.7234 1795.3819 1793.7452 1791.5535 1789.4001 1787.1724 1785.1496 1783.2052 1780.9214 1778.7763 1776.7718 1774.6462 1772.6123 1770.3179 1768.3642 1768.2165 1770.2850 1772.4647 1774.7425 1776.5442 1778.7929 1780.9122 1783.0646 1785.3083 1787.1493 1789.1314 1791.2647 1793.3834 1795.8251 1797.6741 1800.0082 1801.7255 1804.2154 1805.9501 1808.3351 1810.1429 1812.3345 1814.7055 1816.5963 1818.8787 1820.8672 1822.9309 1825.2585 1827.4469 1829.1695 1831.3912 1833.5263 1835.5934 1837.6642 1839.8642 1841.7958 1843.8967 1846.4232 1848.4681 1850.3787 1852.3885 1854.5292 1857.0117 1858.8424 1861.0974 1862.8977 1865.3982 1867.2815 1869.4210 1871.5256 1873.7592 1875.6140 1877.6819 1880.1892 1882.0139 1884.0304 1886.2360 1888.3293 1890.7476 1892.8047 1894.5649 1897.0510 1899.0053 1900.8815 1903.1637 1905.5136 1907.6404 1909.7689 1911.8189 1913.8372 1915.8053 1917.8310 1919.9169 1922.2576 1924.0811 1926.2205 1928.5054 1930.4099 1932.9611 1934.9789 1936.7822 1939.2861 1941.1603 1943.1075 1945.2289 1947.4328 1949.7200 1951.6478 1953.9126 1956.1485 1957.9163 1960.2419 1962.1299 1964.2178 1966.4198 1968.4897 1970.7736 1972.6405 1974.7392 1977.3017 1979.2044 1981.0370 1983.3599 1985.5561 1987.6688 1989.9219 1991.9509 1994.1625 1995.9896 1998.3121 2000.2796 2002.3748 2004.2396 2006.6809 2008.7979 2010.9385 2012.6833 2015.1946 2017.3128 2019.1068 2021.4718 2023.3832 2025.6663 2027.9166 2029.8629 2032.0998 2034.1067 2036.3579 2038.4539 2040.3066 2042.4887 2044.7004 2046.5662 2049.0019 2050.9727 2052.9300 2054.9029 2057.1832 2059.2112 2061.3785 2063.4688
2095.7461 2093.5424 2091.2308 2089.4293 2087.2554 2085.2495 2083.0606 2080.8978 2078.6683 2076.6886 2074.6973 2072.4819 2070.3152 2067.8934 2065.8764 2063.6900 2061.9464 2059.4938 2057.7425 2055.3867 2053.1422 2051.3325 2049.2660 2046.9153 2044.8457 2042.5866 2040.4226 2038.4814 2036.3535 2034.0973 2032.0489 2030.0151 2027.9499 2025.6521 2023.7747 2021.4562 2019.2714 2017.5932 2015.4464 2013.0413 2011.1858 2008.9126 2006.7667 2004.7651 2002.3616 2000.5597 1998.3685 1996.2360 1994.1876 1991.9895 1989.9309 1987.9559 1985.6866 1983.3444 1981.2727 1979.5660 1977.4939 1975.0996 1972.7806 1970.8675 1969.0047 1966.6629 1964.3880 1962.6026 1960.3481 1958.2560 1956.2254 1954.1134 1951.8808 1949.9752 1947.5378 1945.7635 1943.4313 1941.4524 1939.1318 1937.3356 1935.0051 1932.8866 1930.9718 1928.4325 1926.6757 1924.2606 1922.2693 1920.3579 1918.2227 1916.0148 1913.6204 1911.7215 1909.4923 1907.6010 1905.2844 1903.4088 1901.1503 1898.9386 1896.8887 1894.9318 1892.5761 1890.4256 1888.2510 1886.2301 1884.2029 1882.2934 1880.0307 1877.7291 1875.6676 1873.4978 1871.8338 1869.5589 1867.6102 1865.2563 1863.2956 1860.7810 1858.8228 1856.6182 1854.5583 1852.5945 1850.4228 1848.2031 1846.0289 1844.0194 1842.0560 1840.0604 1837.9992 1835.6213 1833.3252 1831.2429 1829.2164 1827.1539 1824.8607 1822.7865 1821.0872 1818.6586 1816.5499 1814.7469 1812.3785 1810.1057 1807.9841 1805.9903 1803.7630 1801.6367 1799.7808 1797.5401 1795.5759 1793.2628 1791.0917 1789.3208 1787.0294 1785.1560 1782.6409 1780.5583 1778.4888 1776.4588 1774.4766 1772.0493 1770.1599 1767.9563 1765.9478 1765.7646 1768.0411 1769.9595 1772.2338 1774.1632 1776.5676 1778.6111 1780.8579 1783.0819 1784.7516 1786.9256 1789.4234 1791.1612 1793.5679 1795.3561 1797.6525 1799.8435 1801.8353 1803.9312 1806.0967 1807.9962 1810.2446 1812.6390 1814.3726 1816.5355 1818.8937 1820.7608 1823.0390 1825.3463 1827.3809 1829.1150 1831.4931 1833.4707 1835.5051 1837.8373 1839.7071 1841.8554 1843.9413 1846.2781 1848.4727 1850.3040 1852.5619 1854.8233 1856.6101 1858.8350 1861.1793 1863.0711 1865.3552 1867.4790 1869.4411 1871.8388 1873.6254 1875.8321 1877.9218 1879.9904 1882.4024 1884.3260 1886.4340 1888.3013 1890.4538 1892.5306 1894.7447 1897.0243 1898.8720 1901.1175 1903.1797 1905.5123 1907.2947 1909.7987 1911.8752 1913.7795 1915.8485 1918.2065 1920.3551 1922.5498 1924.6320 1926.6081 1928.7869 1930.9821 1932.7989 1934.8189 1937.3147 1939.0274 1941.3475 1943.5745 1945.7747 1947.6589 1949.6698 1951.9364 1953.8833 1955.8882 1958.1237 1960.4367 1962.3387 1964.7008 1966.9163 1968.9959 1971.1454 1973.0021 1974.9779 1977.2808 1979.5818 1981.4035 1983.8342 1985.7231 1987.9075 1990.0704 1991.7937 1994.1795 1996.1190 1998.2974 2000.6592 2002.6638 2004.9324 2006.8644 2009.0931 2011.1846 2013.1886 2015.1086 2017.4823 2019.2802 2021.8627 2023.8599 2025.6301 2027.9083 2030.0828 2032.1586 2034.4914 2036.1942 2038.5056 2040.5901 2042.6942 2044.6361 2046.7773 2049.3143 2051.4107 2053.4861 2055.2203 2057.7216 2059.6544 2061.6351
2093.7897 2091.5115 2089.7994 2087.5877 2085.3353 2083.2963 2081.2842 2078.9344 2076.9967 2074.7741 2072.6321 2070.4349 2068.2439 2066.4306 2064.0745 2061.8709 2060.2094 2057.9811 2055.9186 2053.8619 2051.6813 2049.1801 2047.3723 2045.0683 2042.9121 2040.6911 2038.5931 2036.9315 2034.4077 2032.5813 2030.5959 2028.3974 2026.0616 2023.8561 2021.7300 2019.6998 2017.7765 2015.5959 2013.4586 2011.0755 2009.1558 2007.0145 2005.0270 2002.9141 2000.9094 1998.4999 1996.6911 1994.2341 1992.4486 1989.9367 1988.2272 1985.8958 1983.6696 1981.4650 1979.5922 1977.3749 1975.5004 1973.3860 1970.9702 1969.1341 1966.8118 1964.6443 1962.6063 1960.3845 1958.5396 1956.1232 1954.1144 1952.1115 1949.7164 1947.8454 1945.7008 1943.7158 1941.3487 1939.2699 1937.2413 1935.2773 1933.1542 1930.8683 1928.8952 1926.4270 1924.5817 1922.5736 1920.5413 1918.1733 1915.9269 1914.1820 1912.0379 1909.6343 1907.4930 1905.3800 1903.5948 1901.1811 1898.9441 1897.0944 1894.9844 1892.8978 1890.5972 1888.6359 1886.4652 1884.1418 1882.4244 1880.2547 1878.2240 1876.0443 1873.6558 1871.7225 1869.6116 1867.4364 1865.2371 1863.3900 1860.8586 1859.0681 1857.0336 1854.8340 1852.5731 1850.5315 1848.1674 1846.2682 1843.9910 1842.1079 1840.0271 1837.6636 1835.4963 1833.6613 1831.5004 1829.4815 1827.4103 1824.9136 1822.9730 1820.9215 1818.7549 1816.6131 1814.2688 1812.3138 1810.3827 1808.1130 1805.9680 1803.6758 1801.9412 1799.6928 1797.4518 1795.3814 1793.3338 1790.9908 1788.9105 1787.1907 1785.0524 1782.9225 1780.7267 1778.6754 1776.3238 1774.5014 1772.3468 1770.0558 1767.9498 1765.8011 1763.8156 1763.9129 1765.6213 1767.7602 1770.0462 1771.9713 1774.3196 1776.3528 1778.4254 1780.4265 1782.6128 1784.9083 1786.8898 1789.1028 1791.1799 1793.1419 1795.6775 1797.5708 1799.4278 1801.6720 1803.9508 1806.1568 1808.1150 1810.1256 1812.3351 1814.6247 1816.5445 1818.8393 1820.6893 1822.8593 1825.1048 1827.1017 1829.4464 1831.5935 1833.5023 1835.4486 1837.9788 1839.6715 1842.0681 1844.1967 1846.4278 1848.2822 1850.6001 1852.3324 1854.7042 1856.8225 1858.9091 1860.8925 1862.9996 1865.2737 1867.5755 1869.4442 1871.8116 1873.7678 1875.8065 1878.1210 1880.3365 1882.3530 1884.0747 1886.4648 1888.5975 1890.8511 1892.9528 1895.1197 1896.9241 1899.2415 1901.4758 1903.3006 1905.5741 1907.6430 1909.8915 1911.8418 1913.7932 1916.0468 1918.3932 1920.1535 1922.4421 1924.4985 1926.4249 1928.5208 1931.0149 1933.2153 1935.2553 1937.1583 1939.3761 1941.3536 1943.6571 1945.7783 1947.6237 1950.0138 1951.8944 1954.1807 1956.0813 1958.4791 1960.5057 1962.7688 1964.7778 1966.8658 1969.0087 1970.8959 1973.0466 1975.1016 1977.3061 1979.3611 1981.9274 1984.0229 1986.1176 1987.9050 1990.0378 1992.1189 1994.2507 1996.4454 1998.3995 2000.9175 2002.6437 2004.9230 2006.9146 2008.9942 2011.3205 2013.4646 2015.7596 2017.4426 2019.7423 2022.1349 2023.9042 2026.0664 2028.2902 2030.2431 2032.3526 2034.5198 2036.7996 2038.9244 2041.0998 2043.1288 2045.3600 2047.3284 2049.3895 2051.6228 2053.5888 2055.5115 2057.8006 2060.1772
2091.9831 2090.1830 2087.6683 2085.5681 2083.4178 2081.6977 2079.5710 2077.4602 2075.2092 2073.0592 2070.7213 2068.6697 2066.9068 2064.4579 2062.3748 2060.0873 2058.0934 2056.3050 2053.8622 2051.7065 2049.7148 2047.8109 2045.5625 2043.2042 2041.1314 2039.1419 2036.8490 2035.0442 2032.7191 2030.8930 2028.4643 2026.3024 2024.1789 2021.9910 2019.8806 2017.9570 2016.0161 2013.7940 2011.6630 2009.5843 2007.3389 2005.1635 2003.0443 2001.1118 1999.0868 1996.9771 1994.5657 1992.4191 1990.4737 1988.4993 1986.0122 1983.8240 1981.7047 1980.0005 1977.5380 1975.5687 1973.2495 1971.4650 1968.9321 1967.1907 1964.8536 1962.8450 1960.5842 1958.7357 1956.5242 1954.1919 1952.3429 1950.3293 1947.7575 1945.7577 1943.9282 1941.8205 1939.5297 1937.1483 1935.0543 1932.9868 1931.0732 1928.7658 1926.5525 1924.6713 1922.4414 1920.4649 1918.0735 1916.1957 1913.8502 1912.0175 1909.6709 1907.9350 1905.4925 1903.3588 1901.5484 1899.4360 1896.8942 1894.8175 1892.6274 1890.6069 1888.4356 1886.5014 1884.1388 1882.1236 1879.9918 1878.0422 1875.9157 1873.7462 1871.6184 1869.6303 1867.1947 1865.5131 1863.0635 1861.0838 1859.1335 1856.9359 1854.8235 1852.4881 1850.6460 1848.2499 1846.0003 1844.2512 1842.0211 1839.8642 1837.5802 1835.8756 1833.4614 1831.1379 1829.4941 1826.9761 1825.0948 1823.1263 1820.8389 1818.7927 1816.7679 1814.4796 1812.4781 1810.1439 1808.3055 1805.7446 1803.6895 1801.9097 1799.4409 1797.7173 1795.1378 1793.2940 1791.2703 1788.8200 1786.7804 1784.9329 1782.3861 1780.5122 1778.3185 1776.3298 1774.1925 1771.8598 1769.8780 1767.6267 1765.8933 1763.4286 1761.5072 1761.6074 1763.4251 1765.6472 1767.7455 1770.0541 1771.9751 1773.9100 1776.1567 1778.4961 1780.7048 1782.6359 1784.7600 1787.1080 1788.9974 1791.0930 1793.4481 1795.5624 1797.2494 1799.6830 1801.8773 1803.9163 1805.7164 1807.8546 1810.1599 1812.2716 1814.6563 1816.7511 1818.4848 1820.8480 1823.0597 1824.7847 1827.1987 1829.0837 1831.6202 1833.2929 1835.5797 1837.9837 1839.6852 1842.1778 1844.0650 1846.3911 1848.3583 1850.4769 1852.3863 1854.9358 1856.8476 1858.8318 1861.3100 1863.4176 1865.3449 1867.4953 1869.6060 1871.7363 1873.8718 1875.7878 1878.2004 1880.3634 1882.2377 1884.1958 1886.4004 1888.6647 1890.8700 1892.9146 1894.8841 1897.2852 1899.2258 1901.3448 1903.3809 1905.6303 1907.9068 1909.9640 1911.9577 1914.0478 1916.0521 1918.1217 1920.1884 1922.5871 1924.7233 1926.5938 1929.0909 1931.2509 1933.1094 1935.2060 1937.5638 1939.5882 1941.5902 1943.7423 1945.6249 1947.8726 1949.9959 1952.0999 1954.3313 1956.2408 1958.6676 1960.7806 1963.0575 1964.7085 1967.1005 1969.4013 1971.4824 1973.2011 1975.7033 1977.5614 1979.7182 1981.7061 1984.1386 1986.1188 1988.0545 1990.1793 1992.4833 1994.4100 1996.7347 1998.9111 2000.7639 2003.0055 2005.2366 2007.5643 2009.6657 2011.5629 2013.8675 2015.9237 2018.0455 2020.1884 2022.3633 2024.4048 2026.6244 2028.6114 2030.8187 2032.6840 2034.7964 2037.1186 2039.2510 2041.2844 2043.5852 2045.3414 2047.4906 2049.7389 2051.8956 2054.0990 2055.9773 2058.3551
2090.6062 2088.4994 2086.1263 2084.1059 2081.7406 2079.7618 2077.8237 2075.7046 2073.3508 2071.3978 2068.9051 2067.1696 2064.7340 2062.5390 2060.6572 2058.6405 2056.2564 2054.2682 2052.1000 2049.9396 2047.9369 2045.8703 2043.6299 2041.6666 2039.5391 2037.0954 2035.0361 2032.9621 2031.0141 2028.7656 2026.8743 2024.4080 2022.2218 2020.4738 2018.2840 2016.2602 2014.1191 2012.0729 2009.8773 2007.5991 2005.4357 2003.2614 2001.3983 1999.2359 1996.8084 1994.7124 1992.8575 1990.7198 1988.6585 1986.2804 1984.4224 1982.2405 1980.1225 1977.9798 1975.7993 1973.8241 1971.5818 1969.5966 1967.4309 1964.8965 1963.2336 1960.6646 1958.7741 1956.5351 1954.4262 1952.3576 1950.1204 1948.2868 1945.9999 1944.0979 1941.6804 1939.8696 1937.4338 1935.4236 1933.3815 1931.1440 1929.0601 1926.9173 1924.8538 1922.7844 1920.3024 1918.5214 1916.1113 1913.9456 1912.2652 1909.8480 1907.9810 1905.5741 1903.4210 1901.3879 1899.1196 1897.3782 1895.0517 1892.9910 1890.5818 1888.7359 1886.3782 1884.6065 1882.3531 1880.2705 1878.1258 1876.1901 1873.9224 1871.8557 1869.7888 1867.4868 1865.5126 1863.1980 1861.0052 1858.8691 1856.9355 1854.6467 1852.6083 1850.3824 1848.3879 1846.2692 1843.9236 1841.8231 1840.0872 1837.7876 1835.3963 1833.3866 1831.1919 1829.3805 1826.9234 1825.1044 1823.0031 1820.8529 1818.6366 1816.6411 1814.5931 1812.3385 1809.8995 1808.1324 1805.7225 1803.8215 1801.7688 1799.6495 1797.2996 1795.0629 1793.0668 1791.2224 1788.7306 1786.8147 1784.7195 1782.4276 1780.3535 1778.1453 1776.0598 1774.1908 1772.0622 1769.6063 1767.7009 1765.5997 1763.6260 1761.3927 1759.3888 1758.9535 1761.1517 1763.4575 1765.4873 1767.4494 1769.6291 1772.0551 1773.9665 1775.9829 1778.2156 1780.3160 1782.7568 1784.4320 1786.7665 1788.8017 1790.8754 1793.2589 1795.4796 1797.4888 1799.6903 1801.5140 1803.9231 1806.1181 1807.7860 1810.2735 1812.1925 1814.5526 1816.3316 1818.6825 1820.6748 1823.1030 1825.0302 1827.3427 1829.0147 1831.5956 1833.4316 1835.4561 1837.7224 1839.7635 1842.0261 1844.1072 1846.2883 1848.3662 1850.2627 1852.4561 1854.5218 1856.6943 1858.7530 1861.2583 1863.0078 1865.3669 1867.2983 1869.4268 1871.4978 1874.0363 1876.1309 1877.9589 1879.9583 1882.2557 1884.4969 1886.7490 1888.8474 1890.9945 1892.8275 1895.0542 1897.0428 1899.2715 1901.3280 1903.4759 1905.6028 1907.6957 1909.7079 1911.9345 1914.0392 1916.5341 1918.5408 1920.3568 1922.8266 1924.8591 1926.9643 1929.1901 1931.0184 1933.0890 1935.4879 1937.6962 1939.7248 1941.8100 1944.0177 1946.2252 1948.1474 1950.1642 1952.2955 1954.7442 1956.5767 1958.7364 1960.6332 1963.0505 1965.1345 1967.4072 1969.4775 1971.3688 1973.4651 1975.6155 1977.8988 1980.2304 1982.0246 1984.1520 1986.5413 1988.7147 1990.6882 1992.7060 1994.7940 1996.8455 1999.0687 2001.2403 2003.3720 2005.6792 2007.7039 2009.6738 2011.9426 2014.1751 2016.1964 2018.3577 2020.2478 2022.3491 2024.6751 2026.5725 2029.0629 2031.1037 2032.9115 2035.3640 2037.4606 2039.6197 2041.6004 2043.5237 2045.8913 2047.7555 2050.0442 2051.9564 2054.2916 2056.4984
2088.6992 2086.4531 2084.1912 2082.4234 2080.2626 2077.8173 2075.9481 2073.6176 2071.4543 2069.7131 2067.2388 2065.1294 2062.9795 2061.1486 2058.7681 2056.5482 2054.6674 2052.4820 2050.4584 2048.4699 2046.0130 2044.0054 2041.9954 2039.6385 2037.6821 2035.5480 2033.3725 2031.0121 2028.9073 2026.7972 2024.6855 2022.6218 2020.7746 2018.6901 2016.2286 2014.2929 2012.1349 2009.9073 2007.7206 2005.5718 2003.3526 2001.6890 1999.5857 1997.4320 1995.1230 1992.9049 1990.7264 1988.5221 1986.4525 1984.5153 1982.3159 1980.4338 1978.0828 1975.7927 1973.6836 1971.5081 1969.6121 1967.2619 1965.1926 1963.0148 1960.9203 1958.8013 1956.7841 1954.4783 1952.5201 1950.5572 1948.1010 1946.2536 1944.2485 1942.0567 1939.9501 1937.8594 1935.4250 1933.2569 1931.1560 1928.9884 1927.2730 1925.0276 1922.7358 1920.8182 1918.3073 1916.4660 1914.4302 1911.9296 1909.7988 1908.1207 1905.9532 1903.8882 1901.4118 1899.1602 1897.2725 1895.1972 1893.2110 1891.0471 1888.7264 1886.3983 1884.3657 1882.5997 1880.2759 1878.3364 1875.8153 1873.6810 1871.7266 1869.8572 1867.7018 1865.5665 1863.4289 1861.3157 1858.8454 1856.8010 1854.5946 1852.4660 1850.4559 1848.2135 1846.1161 1844.0681 1841.9102 1839.7324 1837.9759 1835.5391 1833.6325 1831.3214 1828.9812 1827.2111 1825.1313 1822.7458 1820.6157 1818.7161 1816.6441 1814.2152 1812.3361 1809.9570 1808.1612 1805.6720 1803.7396 1801.3470 1799.4047 1797.1502 1795.1751 1792.9794 1790.7792 1789.0451 1786.4687 1784.6286 1782.2906 1780.2780 1778.3553 1776.0088 1773.9284 1771.8968 1769.5303 1767.6438 1765.2295 1763.1876 1761.0155 1759.1386 1756.8526 1756.8254 1759.2296 1761.2367 1763.0750 1765.4150 1767.6975 1769.4421 1772.0527 1774.0782 1776.2301 1778.3164 1780.3837 1782.4778 1784.3350 1786.7747 1788.9152 1790.7106 1792.9831 1795.3796 1797.1067 1799.6926 1801.6811 1803.5901 1806.0318 1807.9950 1809.9597 1812.1248 1814.5665 1816.2865 1818.4038 1820.4764 1822.9338 1825.0681 1826.9124 1829.4403 1831.1360 1833.6383 1835.5383 1837.8206 1839.6551 1842.0129 1844.3118 1846.0456 1848.1323 1850.7257 1852.7859 1854.8423 1856.6428 1859.2222 1861.0324 1863.2904 1865.1889 1867.4715 1869.4147 1871.9160 1873.9675 1875.9858 1878.3044 1880.3064 1882.2465 1884.6100 1886.6624 1888.6261 1890.9089 1893.1125 1895.2574 1897.2183 1899.4101 1901.7098 1903.4464 1905.9230 1907.9026 1910.0786 1911.9331 1914.3220 1916.2003 1918.2940 1920.8204 1922.8424 1924.9810 1926.9125 1929.3141 1931.5070 1933.5599 1935.6742 1937.4607 1939.8235 1942.0348 1943.9783 1946.0295 1948.4686 1950.5379 1952.7571 1954.8337 1956.6046 1959.1210 1960.9117 1963.3747 1965.5231 1967.4551 1969.7453 1971.8127 1974.0552 1975.7090 1977.9619 1980.2888 1982.2916 1984.4095 1986.4284 1988.6212 1990.8828 1992.9521 1995.1453 1997.1469 1999.3320 2001.3989 2003.4401 2005.4876 2007.9750 2010.1466 2012.2482 2014.0405 2016.5496 2018.3432 2020.7417 2022.8612 2025.0008 2026.7887 2029.2372 2031.2153 2033.2569 2035.5937 2037.4056 2039.6345 2042.1027 2043.7953 2046.2710 2048.2365 2050.5949 2052.6713 2054.8702
2086.7161 2084.6908 2082.4556 2080.4283 2078.3136 2076.1396 2074.3379 2072.0352 2069.8062 2067.9258 2065.7323 2063.5341 2061.5075 2059.4818 2056.9977 2054.9230 2053.0816 2050.5227 2048.5248 2046.5127 2044.0990 2042.3656 2039.8550 2037.7168 2035.6280 2033.4902 2031.5889 2029.3063 2027.3033 2025.1704 2022.8727 2020.7621 2018.9456 2016.7286 2014.7285 2012.4127 2010.0222 2008.2966 2006.1451 2004.0591 2001.9081 1999.4618 1997.3328 1995.4674 1993.3133 1990.9759 1988.9976 1986.7769 1984.6593 1982.5952 1980.2146 1978.3549 1975.9873 1974.2371 1971.8845 1969.6825 1967.6902 1965.3136 1963.3221 1961.0335 1959.3637 1956.8906 1954.7789 1952.6733 1950.5009 1948.3686 1946.3566 1944.1827 1941.9633 1939.8961 1937.9495 1935.5763 1933.3560 1931.5492 1929.0977 1927.2904 1925.0942 1922.6923 1920.5820 1918.5851 1916.3618 1914.4762 1912.2000 1910.3867 1907.8165 1905.6936 1903.6255 1901.7849 1899.5130 1897.1355 1895.3409 1893.2352 1891.1444 1889.0988 1886.5663 1884.4191 1882.6228 1880.3554 1878.3325 1875.9840 1873.9469 1871.8288 1869.4840 1867.4369 1865.3158 1863.4107 1861.1368 1859.1932 1856.8898 1854.7360 1852.8828 1850.3261 1848.5509 1846.0485 1844.1692 1842.0916 1839.8791 1837.7109 1835.7296 1833.5145 1831.3848 1829.0068 1827.3366 1825.0566 1822.8745 1820.5643 1818.5290 1816.5042 1814.4249 1812.1993 1810.2213 1807.9065 1805.6615 1803.7855 1801.5920 1799.1715 1797.1237 1795.0437 1792.9040 1791.1112 1788.8965 1786.3923 1784.2672 1782.5124 1780.3177 1777.9069 1775.7776 1774.0060 1771.5985 1769.5624 1767.4275 1765.5504 1763.4258 1761.0273 1758.7358 1756.9061 1754.8134 1754.6219 1756.8282 1758.8847 1761.1475 1763.3614 1765.4120 1767.3922 1769.6130 1771.7206 1773.8035 1776.0687 1777.9319 1780.0114 1782.1476 1784.3750 1786.7589 1788.9776 1791.0197 1792.8283 1794.9298 1797.0944 1799.5022 1801.4655 1803.8927 1805.6333 1807.8764 1810.0171 1812.0469 1814.3013 1816.2526 1818.7576 1820.5492 1822.8962 1824.7151 1827.2035 1829.0481 1831.3159 1833.3219 1835.6311 1837.8607 1840.0118 1841.8574 1844.2113 1846.1027 1848.5979 1850.4540 1852.8348 1854.7946 1856.9278 1858.8772 1861.0064 1863.3499 1865.3553 1867.6134 1869.8413 1872.0096 1874.0678 1876.2725 1878.1774 1880.3763 1882.6106 1884.5446 1886.9496 1888.7071 1890.8570 1892.9017 1895.0700 1897.3283 1899.5648 1901.5300 1903.7754 1905.8083 1907.8168 1909.9350 1912.4993 1914.3628 1916.7050 1918.4870 1920.6499 1923.0269 1924.8281 1927.4161 1929.1110 1931.2117 1933.3608 1935.5004 1938.0348 1940.0513 1941.9387 1944.2010 1946.3617 1948.3219 1950.5816 1952.7167 1954.8717 1956.8202 1959.3659 1961.3605 1963.4921 1965.3413 1967.5738 1969.8126 1971.8186 1973.9836 1976.1736 1978.0854 1980.5252 1982.4735 1984.4764 1986.5862 1988.9403 1990.9252 1993.0578 1995.1586 1997.4008 1999.3561 2001.6271 2003.9503 2006.1104 2008.3633 2010.0291 2012.3318 2014.6259 2016.4303 2018.8982 2021.0505 2023.1214 2025.2154 2027.2158 2029.4549 2031.7098 2033.6199 2035.8700 2037.7819 2040.2214 2042.4056 2044.1662 2046.6201 2048.4829 2050.9605 2052.8851
2085.2664 2083.1364 2081.0223 2078.6293 2076.8389 2074.7636 2072.3668 2070.1170 2068.0230 2066.2336 2064.0770 2061.8138 2059.4971 2057.5160 2055.2430 2053.0830 2051.0500 2049.0854 2046.6024 2044.8737 2042.5355 2040.5920 2038.2463 2036.3551 2033.9892 2031.8149 2029.7676 2027.4258 2025.6294 2023.1048 2021.0038 2019.2947 2016.8850 2015.0111 2012.6510 2010.5707 2008.4973 2006.1876 2004.0721 2002.0507 1999.9313 1997.9485 1995.3624 1993.2194 1991.3931 1989.1365 1986.8810 1984.6997 1982.6903 1980.7648 1978.3770 1976.4283 1974.4417 1972.1095 1969.9257 1968.0933 1965.8081 1963.6071 1961.5781 1959.1457 1957.1065 1955.1635 1953.0277 1950.6680 1948.5504 1946.7628 1944.5146 1942.2465 1940.1779 1938.0657 1936.0694 1933.6742 1931.7502 1929.4593 1927.4111 1925.2674 1923.0167 1920.9903 1918.9392 1916.5590 1914.6208 1912.5715 1910.4843 1907.9794 1905.8629 1903.7299 1901.6780 1899.8269 1897.6770 1895.3022 1893.3019 1890.9608 1889.0814 1886.8383 1884.8600 1882.6793 1880.3591 1878.4521 1876.0911 1874.1365 1872.1092 1869.6021 1867.4028 1865.3873 1863.3478 1860.9746 1859.1314 1856.8352 1854.7673 1852.7182 1850.6111 1848.4441 1846.0908 1843.9633 1842.0819 1839.9610 1837.6096 1835.5051 1833.4745 1831.1493 1829.1269 1827.2646 1825.1422 1822.7956 1820.4702 1818.6518 1816.1727 1814.3535 1812.3610 1810.0291 1807.7089 1805.8316 1803.5232 1801.4775 1799.1715 1797.0765 1795.0296 1792.9346 1791.0148 1788.9092 1786.4653 1784.6513 1782.4012 1780.0128 1777.9680 1776.0592 1773.6371 1771.8469 1769.5754 1767.5210 1765.1174 1763.0083 1761.1677 1758.8780 1756.9039 1754.5378 1752.5767 1752.2454 1754.7012 1756.7060 1758.8695 1760.8256 1763.2681 1765.4429 1767.5018 1769.7085 1771.5303 1773.5647 1775.7835 1778.1080 1780.3994 1782.1338 1784.4718 1786.3894 1788.9028 1790.8321 1793.1834 1795.1956 1797.2525 1799.5595 1801.2791 1803.8164 1805.6129 1807.6688 1810.2198 1812.2273 1814.3546 1816.4490 1818.5451 1820.6357 1822.9981 1825.1486 1827.1630 1829.3899 1831.1337 1833.3790 1835.7849 1837.5529 1839.7734 1842.1103 1843.9769 1846.2673 1848.2057 1850.5826 1852.9083 1854.9258 1857.1137 1859.0357 1861.0495 1863.2125 1865.6563 1867.6386 1869.7988 1872.0791 1873.8557 1876.3584 1878.1218 1880.5839 1882.6166 1884.6129 1886.9020 1889.0859 1891.0160 1893.3420 1895.3089 1897.6072 1899.7414 1901.5322 1904.1125 1906.0768 1908.0452 1910.0721 1912.5033 1914.4806 1916.6505 1918.6035 1921.0827 1923.0502 1925.2381 1927.5262 1929.3140 1931.6969 1933.6636 1935.9030 1937.8314 1940.0826 1942.2010 1944.5777 1946.6578 1948.7031 1950.8679 1953.1197 1955.2393 1957.2645 1959.1448 1961.6392 1963.4342 1965.8478 1967.9812 1969.7827 1972.1392 1974.1630 1976.6129 1978.7502 1980.5238 1982.7964 1984.6925 1987.2922 1988.9847 1991.1398 1993.2366 1995.6359 1997.5382 1999.9009 2001.7673 2004.2909 2006.0704 2008.4351 2010.3817 2012.8775 2014.7656 2016.9935 2018.9961 2021.2746 2023.4518 2025.6334 2027.6332 2029.5783 2031.7390 2034.1821 2036.2441 2038.4298 2040.3257 2042.7611 2044.5921 2046.7489 2049.0573 2050.8956
2083.2163 2081.5322 2079.1576 2077.0888 2075.1165 2072.7659 2070.5618 2068.5010 2066.5913 2064.4158 2061.8646 2060.0631 2057.6780 2055.8676 2053.7487 2051.3414 2049.1284 2047.3055 2044.8499 2042.6902 2040.5652 2038.7653 2036.2672 2034.3836 2032.0424 2029.8621 2028.0854 2025.6252 2023.6302 2021.7028 2019.5462 2017.4285 2015.1328 2012.9694 2010.8941 2008.5862 2006.6314 2004.3952 2002.1570 2000.3409 1997.9449 1995.8175 1993.7368 1991.7781 1989.6434 1987.2069 1985.2516 1983.1613 1981.1137 1978.7442 1976.7187 1974.6942 1972.1586 1970.3310 1968.1691 1965.8740 1963.8279 1961.7079 1959.4250 1957.2163 1955.2136 1953.0967 1951.1269 1949.0808 1946.8521 1944.4232 1942.6430 1940.3628 1938.0032 1936.0978 1933.6862 1932.0063 1929.5346 1927.5160 1925.3773 1923.2790 1920.8849 1919.1961 1916.5673 1914.5226 1912.5103 1910.5276 1908.4075 1906.0440 1904.2172 1902.0311 1899.5499 1897.5999 1895.6195 1893.2922 1891.2138 1888.9686 1886.6846 1884.6447 1882.6216 1880.4600 1878.6024 1876.2266 1874.3005 1871.7554 1869.8118 1867.4555 1865.6850 1863.4162 1861.3683 1859.1409 1856.9065 1854.7206 1852.9517 1850.7165 1848.3789 1846.2626 1843.9706 1841.8896 1839.8097 1837.9888 1835.6353 1833.7242 1831.5435 1829.2987 1827.2875 1824.8988 1822.7756 1820.6586 1818.4523 1816.4767 1814.0734 1812.2226 1809.9324 1807.8898 1805.5227 1803.5684 1801.4939 1799.2781 1797.0568 1794.9130 1793.0888 1790.7237 1788.8491 1786.3193 1784.5997 1781.9799 1780.2532 1778.0133 1775.7406 1773.6460 1771.4262 1769.3747 1767.4130 1765.0975 1762.8090 1761.0330 1758.8453 1756.3310 1754.3888 1752.2329 1749.9708 1750.3256 1752.4923 1754.1901 1756.3269 1758.6702 1760.9835 1762.9994 1765.1638 1767.4012 1769.4200 1771.5111 1773.4568 1775.9565 1778.0749 1779.8350 1782.1969 1784.2379 1786.5636 1788.8084 1790.5362 1792.9836 1795.0423 1797.3703 1799.3160 1801.4432 1803.6553 1805.7148 1807.8864 1810.1854 1811.9198 1814.3946 1816.3331 1818.7074 1820.6749 1822.5831 1825.1846 1827.1756 1829.4335 1831.4942 1833.5019 1835.6982 1837.9436 1839.9709 1841.9057 1844.3320 1846.3059 1848.5595 1850.4710 1852.8556 1854.9295 1856.7491 1859.1996 1861.1944 1863.4270 1865.4433 1867.6761 1869.6171 1872.1000 1874.1159 1876.4368 1878.2890 1880.5436 1882.4364 1884.9104 1887.1066 1889.2162 1891.3759 1893.3865 1895.3596 1897.7407 1899.7319 1901.7146 1903.9388 1906.3470 1908.2161 1910.4176 1912.3852 1914.7038 1916.7876 1918.7199 1921.0861 1923.2741 1925.1913 1927.3932 1929.5552 1931.8384 1933.8267 1935.8178 1937.9625 1940.2880 1942.4073 1944.5236 1946.8344 1948.7002 1951.1931 1953.0911 1955.4825 1957.6047 1959.3002 1961.7708 1963.7110 1966.1416 1968.0497 1970.4446 1972.3543 1974.5731 1976.5259 1978.7262 1981.0317 1983.2006 1985.0143 1987.4658 1989.5133 1991.6344 1993.8134 1995.7346 1998.1606 2000.2814 2002.2971 2004.1813 2006.4338 2008.4748 2010.7912 2012.7227 2015.3035 2017.0104 2019.4191 2021.7386 2023.6613 2025.7187 2027.9232 2030.2888 2032.3159 2034.2896 2036.4842 2038.4462 2040.8155 2042.7395 2044.9284 2047.0358 2049.3604
2081.7587 2079.4074 2077.3871 2075.3515 2073.2234 2070.8177 2069.0594 2066.6879 2064.5247 2062.3053 2060.3875 2058.0439 2056.1844 2053.7343 2051.6440 2049.8714 2047.4383 2045.1446 2043.1683 2040.9620 2038.6966 2036.5769 2034.6281 2032.4749 2030.5872 2028.4109 2026.3250 2024.0082 2021.7734 2019.8402 2017.5175 2015.2589 2013.0212 2010.8846 2009.1322 2006.6213 2004.8840 2002.7748 2000.5426 1998.1229 1996.2477 1993.7532 1991.7994 1989.5975 1987.8111 1985.4525 1983.4512 1980.9352 1978.8169 1976.6828 1974.9490 1972.4836 1970.5587 1968.1695 1966.1834 1963.8459 1961.7946 1959.8689 1957.5229 1955.5916 1953.5402 1951.2245 1948.8987 1947.0878 1944.9418 1942.6527 1940.5899 1938.5484 1936.3642 1934.2216 1931.9166 1929.6548 1927.8479 1925.4913 1923.4986 1921.1986 1918.9439 1916.8077 1914.9422 1912.5114 1910.6455 1908.3621 1906.2995 1904.2473 1902.1466 1899.6492 1897.5174 1895.5249 1893.2874 1891.5071 1888.9890 1887.0118 1884.6691 1882.9200 1880.4290 1878.6921 1876.0891 1874.0224 1871.8382 1870.1225 1867.7410 1865.8401 1863.2905 1861.2428 1859.3629 1857.1448 1855.0452 1852.6513 1850.4984 1848.4011 1846.3656 1844.1163 1842.1734 1840.1385 1837.6550 1835.5986 1833.6466 1831.2170 1829.2529 1827.2363 1824.8129 1822.7721 1820.7330 1818.4269 1816.5683 1814.2047 1812.1744 1810.1004 1807.8082 1805.4548 1803.6415 1801.3974 1799.4900 1797.1269 1794.7466 1793.0533 1790.7249 1788.3270 1786.3804 1784.4178 1782.2522 1780.1642 1778.0730 1775.7156 1773.3814 1771.6187 1769.3709 1767.2372 1765.1297 1763.1257 1760.6233 1758.7305 1756.2999 1754.2110 1751.9908 1750.0542 1748.1009 1748.0287 1750.0361 1751.9750 1754.5586 1756.6655 1758.8360 1760.5253 1763.1295 1765.0878 1767.0416 1769.2901 1771.6843 1773.3867 1775.5017 1777.7238 1780.0267 1782.1386 1784.5026 1786.4510 1788.5356 1790.8766 1792.8982 1794.9151 1797.2486 1799.2364 1801.3805 1803.5304 1805.8535 1807.7575 1810.0158 1812.0794 1814.0674 1816.2233 1818.5193 1820.5474 1823.0030 1824.9629 1827.0259 1829.3539 1831.5790 1833.3680 1835.5233 1837.7095 1839.7398 1842.2625 1843.9864 1846.4613 1848.5766 1850.4442 1852.6164 1854.7271 1857.0648 1859.1055 1861.3350 1863.6537 1865.7731 1867.9271 1870.1260 1871.8052 1874.0404 1876.4239 1878.5244 1880.3889 1882.5234 1884.9858 1887.0953 1889.2438 1891.3370 1893.2668 1895.7862 1897.7728 1899.6027 1901.8722 1904.0165 1906.3052 1908.3262 1910.4577 1912.8864 1914.9679 1917.1287 1919.1014 1921.4203 1923.2200 1925.6867 1927.8692 1929.8767 1932.1731 1933.9977 1935.9744 1938.1511 1940.4256 1942.5569 1944.5520 1947.0370 1948.8453 1951.3342 1953.1746 1955.5981 1957.6745 1959.6869 1961.7022 1964.0265 1965.9802 1968.5237 1970.4649 1972.4281 1974.5590 1976.9174 1979.1562 1981.1104 1983.2444 1985.4120 1987.3382 1989.7424 1991.9056 1993.8408 1995.9761 1998.3169 2000.4843 2002.6963 2004.5131 2006.5917 2009.0940 2011.1608 2013.0211 2015.4639 2017.7570 2019.9168 2022.0323 2024.0554 2026.3431 2028.1090 2030.3654 2032.4412 2034.7489 2036.8942 2038.9616 2041.1751 2043.1798 2045.2672 2047.3696
2080.2133 2077.8406 2075.7072 2073.6891 2071.3470 2069.0598 2067.1761 2064.7629 2062.6599 2060.8471 2058.6818 2056.2506 2054.1330 2052.3351 2049.9808 2047.6918 2045.7489 2043.6363 2041.2157 2039.0683 2037.0251 2035.1477 2032.9720 2030.9528 2028.5282 2026.3341 2024.1395 2022.0305 2019.7931 2018.0064 2015.5798 2013.7358 2011.3032 2009.2530 2007.2317 2004.8787 2002.9601 2000.7691 1998.7594 1996.6266 1994.4635 1992.0494 1989.9223 1987.7597 1985.8561 1983.6952 1981.6093 1979.4524 1977.2274 1975.1128 1972.9526 1970.8503 1968.5321 1966.5949 1964.5120 1962.2145 1959.9083 1958.0056 1955.9181 1953.6865 1951.4509 1949.3121 1947.1207 1945.1713 1942.6572 1940.6116 1938.3885 1936.2644 1934.5053 1932.3023 1929.7790 1928.0040 1925.8829 1923.6103 1921.6108 1919.3288 1916.8969 1914.9424 1912.9389 1910.6439 1908.4669 1906.1965 1904.1630 1902.2010 1900.0874 1897.8590 1895.7132 1893.3667 1891.2328 1889.0125 1887.0755 1884.7409 1882.9460 1880.6543 1878.6342 1876.3118 1874.2102 1872.2037 1870.0741 1867.8559 1865.4805 1863.5068 1861.2038 1859.4978 1857.0143 1855.0124 1852.9587 1850.4514 1848.6277 1846.6319 1844.3113 1842.2340 1840.1318 1837.6546 1835.8080 1833.5952 1831.2402 1829.1443 1827.1291 1824.8764 1822.8372 1820.5790 1818.5091 1816.3715 1814.3035 1812.2154 1810.0553 1807.7601 1805.7038 1803.3476 1801.4040 1799.1838 1797.2826 1794.7460 1793.0130 1790.8055 1788.6097 1786.2221 1784.1415 1782.0554 1779.9310 1777.7692 1775.5873 1773.3713 1771.2206 1769.3449 1767.3092 1765.1795 1763.0026 1760.4654 1758.6551 1756.4584 1754.4572 1752.0998 1749.7353 1747.7659 1745.7216 1745.8833 1747.9325 1750.1897 1751.8676 1754.3953 1756.4612 1758.2719 1760.4831 1763.0079 1765.0541 1767.2791 1769.2782 1771.2320 1773.3128 1775.4966 1777.8212 1780.1534 1782.1793 1784.2681 1786.5152 1788.7611 1790.6513 1793.0106 1794.9691 1796.8731 1799.2507 1801.3429 1803.5383 1805.5737 1807.6835 1809.7341 1812.1417 1814.0288 1816.5975 1818.6242 1820.6483 1822.6500 1824.7350 1827.1603 1829.2075 1831.1541 1833.7222 1835.7102 1837.8639 1839.9757 1841.8830 1844.3705 1846.3960 1848.6438 1850.6834 1852.7795 1855.1634 1857.2361 1859.0940 1861.3522 1863.7248 1865.5003 1867.6159 1869.8413 1872.0991 1874.5000 1876.4608 1878.3005 1880.4978 1882.6831 1884.7489 1887.3144 1889.3557 1891.4635 1893.3127 1895.5618 1897.8392 1900.0934 1901.8760 1904.4814 1906.5035 1908.7794 1910.8786 1912.9276 1915.0376 1917.3470 1919.1747 1921.5928 1923.5460 1925.5376 1927.7678 1929.7682 1932.2536 1934.4863 1936.4433 1938.4609 1940.7724 1942.9897 1944.8302 1946.9871 1949.1380 1951.1664 1953.4033 1955.5139 1958.0557 1960.0105 1962.0043 1964.2774 1966.6232 1968.4884 1970.5828 1972.7871 1974.8697 1977.2867 1979.4961 1981.6406 1983.4937 1985.5482 1988.0693 1989.9156 1992.1279 1994.1003 1996.3543 1998.3263 2000.8829 2002.7319 2004.7955 2007.1835 2009.4591 2011.4464 2013.6756 2015.5532 2017.8174 2019.8340 2021.8853 2024.4934 2026.4207 2028.6805 2030.8333 2032.8633 2035.1668 2037.1696 2039.4711 2041.4642 2043.6566 2045.7485
2078.5023 2075.8854 2074.1957 2071.5864 2069.5240 2067.6092 2065.3037 2063.1171 2061.0238 2058.9699 2056.9312 2054.8516 2052.5758 2050.3517 2047.9905 2046.1579 2043.7098 2041.6353 2039.5877 2037.6232 2035.1113 2033.0652 2030.8800 2028.8789 2026.8012 2024.5852 2022.5679 2020.1369 2018.1410 2015.9427 2014.0126 2011.8537 2009.6113 2007.2223 2005.4753 2002.9108 2001.0606 1998.6537 1996.6687 1994.6333 1992.5157 1990.1884 1988.2131 1985.8896 1983.5960 1981.5203 1979.6256 1977.2289 1975.3754 1973.2003 1971.0291 1968.6613 1966.6630 1964.6792 1962.5907 1960.0637 1957.8374 1955.9665 1953.5417 1951.7517 1949.6487 1947.2193 1945.0867 1943.1302 1940.8169 1938.8675 1936.5416 1934.2351 1932.5412 1930.0644 1927.9765 1925.8742 1923.9022 1921.3617 1919.6328 1917.5250 1914.8881 1913.2313 1910.7137 1908.7671 1906.6483 1904.5491 1902.4766 1899.9945 1898.1079 1895.8038 1893.5564 1891.7211 1889.1408 1887.2413 1885.3094 1883.0965 1880.6578 1878.6555 1876.6026 1874.3296 1872.3657 1869.9260 1867.9126 1865.8985 1863.5235 1861.2373 1859.2225 1857.3437 1855.0565 1853.1169 1850.6889 1848.5589 1846.4031 1844.0886 1842.2564 1839.7992 1837.7175 1835.6627 1833.4499 1831.5534 1829.4616 1827.3548 1825.0045 1823.0470 1820.8694 1818.3283 1816.1467 1814.3960 1812.0160 1809.8053 1807.6992 1805.9052 1803.2924 1801.5265 1799.2528 1797.0747 1794.9747 1792.9614 1790.8080 1788.6912 1786.5391 1784.1429 1781.8448 1779.9645 1777.8901 1775.7299 1773.2148 1771.2375 1769.0685 1767.1317 1764.9532 1762.9129 1760.6078 1758.6243 1756.1352 1754.1159 1751.9488 1749.7112 1747.5018 1745.3306 1743.5888 1743.2358 1745.4535 1747.7087 1749.7028 1751.9462 1754.2750 1756.3261 1758.5201 1760.3347 1762.6877 1765.0226 1767.2635 1769.2944 1771.5038 1773.2502 1775.5869 1777.7013 1779.9212 1782.0734 1784.2093 1786.1174 1788.4060 1790.4387 1792.5411 1794.7537 1796.9151 1799.3245 1801.6002 1803.2897 1805.4837 1807.7173 1810.1349 1811.9045 1814.1481 1816.5402 1818.4349 1820.4979 1822.6088 1825.0078 1827.1017 1829.4037 1831.3308 1833.5344 1835.8841 1837.9846 1840.0008 1842.1259 1844.3192 1846.3751 1848.7525 1850.5999 1852.9634 1854.9977 1857.2237 1859.1151 1861.4411 1863.5933 1865.8819 1867.7295 1870.0139 1872.2614 1874.2890 1876.3184 1878.4403 1880.8270 1882.8562 1885.2632 1887.2823 1889.2909 1891.5292 1893.4275 1895.8783 1897.8687 1900.3438 1902.1266 1904.2031 1906.5325 1908.8955 1910.7590 1913.2193 1914.9791 1917.0480 1919.5660 1921.7949 1923.8192 1926.0116 1928.2430 1930.3865 1932.3242 1934.5342 1936.3584 1938.8363 1940.9668 1942.8809 1945.1105 1947.2792 1949.5742 1951.7812 1953.8466 1955.8062 1957.8851 1960.4560 1962.5497 1964.2844 1966.6210 1968.8179 1971.1229 1973.1784 1975.1883 1977.4490 1979.3593 1981.6749 1983.8802 1985.9636 1987.8855 1990.0174 1992.2374 1994.5043 1996.5612 1998.6435 2000.8579 2003.1042 2005.0822 2007.4031 2009.3330 2011.5534 2013.8634 2016.0097 2018.3827 2020.0849 2022.6989 2024.5736 2026.7470 2028.8245 2030.9559 2033.4191 2035.1970 2037.3970 2039.4055 2041.7293 2044.1025
2076.4014 2074.3679 2072.1509 2070.0891 2067.8417 2065.8299 2063.6456 2061.5293 2059.4888 2056.9516 2055.2640 2053.0876 2050.7904 2048.6840 2046.5186 2044.4571 2042.1217 2039.7903 2037.6873 2035.8556 2033.3021 2031.5783 2029.2204 2027.0239 2024.7046 2022.9838 2020.4754 2018.5100 2016.5203 2014.2621 2011.8873 2009.9656 2007.6117 2005.5648 2003.3064 2001.0955 1999.3443 1996.9210 1994.6711 1992.9137 1990.5739 1988.4375 1986.2994 1984.2003 1982.1799 1980.0000 1977.8359 1975.7131 1973.2002 1971.1773 1968.9862 1966.7412 1964.8564 1962.4873 1960.3597 1958.3600 1956.1233 1954.0210 1951.8697 1949.7605 1947.5563 1945.2524 1942.9960 1941.1890 1938.8263 1936.9891 1934.6756 1932.4152 1930.4751 1928.2965 1925.9640 1923.9136 1921.8845 1919.7626 1917.5200 1915.0902 1913.1917 1910.8976 1908.6960 1906.9088 1904.7329 1902.6024 1900.4017 1898.3183 1895.8251 1893.7741 1891.5764 1889.7438 1887.3738 1885.1216 1883.1875 1881.1232 1878.6211 1876.3949 1874.5264 1872.3990 1870.3135 1867.8916 1865.9521 1863.8247 1861.6698 1859.1776 1857.0015 1855.0968 1852.9512 1850.8604 1848.8291 1846.6451 1844.1848 1842.1880 1840.0063 1838.1109 1835.8495 1833.3881 1831.2885 1829.4313 1827.3597 1824.9385 1822.8544 1820.7366 1818.5891 1816.2095 1814.3880 1811.9051 1809.9634 1807.8538 1805.8558 1803.3972 1801.3903 1799.4179 1796.9001 1794.6935 1792.9392 1790.5130 1788.6466 1786.4584 1783.9531 1782.1681 1779.8388 1777.5942 1775.7588 1773.6018 1771.0742 1769.1420 1766.8079 1764.9118 1762.7686 1760.4666 1758.2408 1756.3789 1754.2281 1751.7663 1749.6399 1747.8123 1745.2166 1743.5509 1741.2222 1741.3451 1743.2018 1745.3435 1747.7308 1749.6805 1751.9904 1754.1319 1756.3307 1758.2671 1760.4508 1762.8787 1764.6172 1767.1267 1769.0680 1771.4734 1773.5837 1775.6828 1777.7012 1779.9777 1781.7543 1784.1610 1786.1250 1788.4903 1790.4680 1792.5477 1794.9782 1796.9424 1799.1710 1801.2427 1803.4127 1805.5171 1807.6337 1809.8160 1812.2998 1814.0126 1816.5975 1818.4339 1820.6063 1822.8533 1824.9078 1827.1288 1829.0981 1831.6393 1833.6145 1835.7780 1837.8020 1840.2048 1842.1139 1844.4845 1846.3186 1848.6867 1850.5490 1852.7462 1855.2717 1857.3130 1859.4342 1861.6759 1863.9419 1865.9430 1868.2267 1870.3533 1872.4361 1874.5989 1876.4283 1878.7299 1881.1313 1882.9808 1885.1611 1887.2189 1889.5662 1891.5728 1893.6499 1895.9189 1898.1372 1900.0394 1902.1866 1904.7865 1906.7863 1908.9588 1911.1375 1913.0041 1915.2510 1917.4069 1919.7290 1921.9789 1923.8934 1926.0709 1928.0890 1930.5827 1932.2865 1934.3948 1936.8973 1938.9817 1941.2379 1943.2695 1945.5213 1947.6424 1949.5528 1951.9715 1954.0651 1955.9006 1958.4440 1960.4674 1962.5651 1964.7384 1966.9937 1968.8099 1971.3519 1973.5521 1975.4581 1977.5689 1979.5585 1982.0204 1984.2284 1986.0836 1988.3932 1990.3115 1992.8829 1994.7949 1997.1938 1998.9606 2001.2850 2003.6388 2005.8229 2007.5384 2009.8029 2012.2193 2014.4034 2016.1523 2018.4516 2020.5761 2022.6536 2025.1270 2027.1553 2029.2387 2031.1764 2033.5993 2035.8184 2037.8764 2039.9487 2042.1069
2074.8752 2072.8877 2070.6320 2068.2048 2066.2910 2064.0307 2062.0168 2059.4971 2057.6710 2055.4232 2053.1617 2051.2904 2049.0181 2046.7964 2044.8014 2042.6619 2040.4018 2038.4180 2035.9390 2033.8106 2031.7910 2029.7194 2027.4326 2025.1152 2022.8996 2021.2027 2018.9895 2016.6707 2014.3835 2012.2186 2010.1156 2008.3025 2005.8267 2003.9618 2001.4157 1999.3661 1997.5231 1994.9787 1993.2175 1990.7745 1988.7574 1986.4568 1984.2419 1982.2758 1979.9712 1977.9265 1975.8566 1973.4356 1971.5032 1969.3189 1966.9805 1964.9566 1963.0701 1960.8806 1958.4161 1956.1503 1954.1196 1952.0637 1950.1284 1947.5209 1945.6506 1943.2597 1941.5217 1939.0761 1936.9079 1934.7356 1932.8778 1930.5545 1928.4385 1926.3841 1924.0328 1921.9192 1919.9569 1917.5583 1915.2717 1913.3569 1911.4000 1908.8284 1906.6974 1904.4569 1902.5480 1900.6085 1898.2049 1895.9498 1893.9148 1891.9180 1889.5722 1887.6194 1885.2336 1882.9610 1881.2019 1878.7937 1876.7965 1874.6822 1872.4584 1870.4144 1867.9188 1865.8164 1863.6709 1861.5996 1859.5347 1857.3732 1855.2681 1853.1732 1850.8783 1848.7548 1846.3369 1844.4309 1842.2508 1839.9540 1837.7097 1835.9018 1833.5647 1831.3013 1829.1345 1827.3264 1824.8421 1822.6507 1820.5439 1818.3516 1816.2972 1814.3321 1812.1987 1809.8577 1807.9131 1805.5086 1803.3349 1801.2944 1799.0974 1797.0624 1795.0856 1792.6602 1790.4508 1788.6325 1786.1488 1784.1470 1782.2127 1780.0397 1777.4068 1775.6492 1773.3954 1770.9621 1768.9751 1766.7625 1764.8270 1762.8196 1760.6729 1758.1069 1756.3183 1754.1224 1751.8793 1749.6912 1747.5710 1745.2339 1743.0767 1740.9285 1738.6875 1738.8681 1741.0547 1743.0263 1745.1463 1747.6386 1749.8535 1751.7031 1754.0067 1755.8945 1758.3843 1760.4506 1762.7620 1764.6048 1766.7847 1768.9176 1771.0119 1773.5969 1775.5468 1777.7364 1780.0235 1782.0628 1784.1197 1786.0798 1788.6115 1790.3691 1792.7341 1794.9337 1797.1280 1799.1515 1801.5330 1803.6423 1805.4474 1807.6736 1809.9421 1812.0070 1814.3392 1816.5366 1818.6775 1820.7893 1822.6856 1824.7898 1827.2928 1829.4591 1831.4677 1833.5808 1835.8042 1837.9207 1840.2231 1842.3367 1844.1877 1846.4268 1848.4973 1850.6311 1852.9160 1854.9423 1857.2001 1859.4550 1861.8193 1863.6158 1865.8139 1868.1980 1870.0901 1872.5268 1874.7530 1876.7759 1878.7412 1881.1998 1883.2084 1885.1884 1887.5117 1889.4221 1891.6069 1893.7534 1896.2296 1898.2539 1900.6102 1902.4566 1904.9080 1906.8024 1908.8869 1911.3219 1913.2890 1915.7084 1917.6074 1919.8396 1922.0440 1924.0690 1926.3018 1928.5738 1930.6249 1932.5479 1934.9510 1936.8359 1938.9191 1941.1155 1943.2860 1945.6911 1948.0018 1949.9086 1952.1309 1954.3319 1956.5000 1958.6011 1960.5388 1962.9289 1965.0419 1967.0822 1969.1235 1971.5557 1973.5538 1975.9813 1977.9229 1980.0581 1982.0824 1984.1789 1986.2800 1988.7573 1990.9850 1992.9619 1995.2177 1997.4164 1999.3676 2001.4883 2003.7508 2005.8983 2008.2453 2010.1600 2012.2330 2014.6746 2016.8413 2018.5950 2020.9044 2022.9558 2025.2520 2027.6699 2029.7338 2031.5229 2033.6712 2035.8719 2038.1481 2040.2754
2073.3170 2071.0107 2068.5830 2066.6940 2064.3194 2062.0844 2060.1857 2057.8172 2055.5791 2053.4392 2051.6264 2049.1981 2047.3270 2045.1965 2042.7480 2040.9292 2038.5559 2036.4157 2034.2121 2032.1402 2029.9348 2027.6754 2025.5361 2023.4263 2021.4540 2019.2369 2017.2442 2014.7440 2012.9175 2010.3533 2008.2635 2006.1798 2004.0808 2001.6704 1999.7573 1997.6358 1995.6730 1993.0630 1991.0119 1989.1404 1986.9312 1984.4797 1982.6568 1980.5133 1978.2548 1975.8050 1973.9262 1971.4737 1969.5781 1967.4987 1965.1847 1963.1941 1960.8075 1958.5450 1956.8400 1954.2668 1952.2481 1949.9795 1947.8918 1946.0020 1943.4710 1941.7407 1939.5240 1937.3438 1935.0811 1932.9416 1930.6765 1928.4387 1926.6559 1924.1398 1921.9707 1920.0725 1917.8938 1915.8014 1913.5189 1911.0846 1909.2014 1906.8535 1905.0412 1902.7681 1900.7393 1898.1973 1896.1748 1893.8749 1891.7685 1889.5793 1887.8564 1885.6882 1883.5266 1881.2865 1878.9245 1876.8802 1874.7402 1872.3627 1870.4562 1867.9887 1865.9392 1864.0917 1861.6796 1859.6366 1857.4986 1855.4048 1853.1930 1851.1429 1848.9773 1846.5053 1844.3810 1842.1916 1840.1255 1837.9583 1835.6308 1833.4767 1831.5202 1829.6235 1827.4088 1824.9314 1822.7689 1820.6048 1818.5900 1816.3829 1814.3851 1812.0306 1810.0018 1807.8861 1805.4671 1803.7244 1801.4048 1799.1035 1797.2135 1794.6669 1792.9538 1790.6413 1788.1633 1786.3062 1784.2646 1782.1102 1779.8614 1777.5872 1775.4665 1773.5109 1771.0893 1769.1714 1766.7010 1764.7879 1762.5612 1760.2206 1758.0953 1756.0748 1753.8604 1751.8651 1749.5652 1747.6516 1745.1710 1742.9510 1740.7978 1738.7605 1736.7419 1736.6265 1739.0342 1740.9414 1742.9492 1745.4072 1747.5727 1749.3628 1751.9411 1754.1028 1755.9432 1758.2171 1760.2160 1762.6589 1764.5826 1766.8864 1768.9945 1771.0441 1773.5244 1775.2805 1777.5010 1779.9282 1781.8258 1784.2514 1786.3331 1788.6412 1790.6174 1792.4719 1794.6656 1796.9132 1799.0425 1801.5165 1803.4760 1805.6433 1807.8387 1810.0149 1812.3658 1814.2400 1816.6057 1818.4113 1820.7496 1822.7316 1825.1677 1827.1541 1829.1325 1831.5416 1833.7702 1835.6449 1837.8067 1840.2828 1842.1447 1844.3667 1846.5003 1848.8477 1851.1393 1853.1596 1855.1402 1857.1836 1859.7170 1861.9407 1864.1188 1866.1465 1868.1389 1870.2074 1872.5644 1874.6750 1876.9669 1878.9543 1881.1361 1883.3709 1885.6404 1887.3882 1889.5414 1891.9654 1894.0070 1896.0492 1898.5066 1900.4525 1902.5114 1904.8438 1906.7865 1909.4090 1911.2314 1913.2398 1915.6891 1917.7368 1919.8199 1922.0138 1924.2572 1926.5901 1928.4845 1930.7465 1933.0982 1934.8117 1937.4409 1939.4108 1941.7077 1943.5930 1945.7212 1947.7939 1950.2409 1952.1320 1954.5032 1956.7810 1958.9318 1960.7865 1963.2456 1965.3624 1967.2801 1969.7660 1971.9155 1973.8091 1975.9029 1978.2529 1980.3620 1982.5112 1984.4150 1986.9061 1989.0167 1990.9863 1993.1317 1995.6561 1997.4296 1999.9191 2001.7575 2003.9400 2006.0432 2008.4420 2010.6856 2012.8193 2015.0675 2017.1574 2019.1768 2021.3116 2023.3769 2025.6247 2027.7896 2030.0195 2032.1986 2034.2142 2036.3797 2038.6869
2071.1218 2068.9937 2067.1089 2064.7759 2062.5597 2060.6812 2058.3713 2056.2728 2054.2753 2051.7057 2049.6502 2047.7121 2045.4153 2043.1881 2041.2714 2039.1634 2036.9611 2034.5854 2032.2318 2030.5134 2028.3457 2026.1055 2023.6854 2021.6864 2019.2821 2017.3860 2015.0026 2013.0147 2011.0254 2008.4800 2006.7874 2004.4926 2002.1133 2000.1277 1998.0319 1995.8390 1993.5570 1991.3945 1989.4046 1987.3135 1984.9928 1982.8572 1980.6994 1978.2774 1976.0715 1974.3786 1971.9444 1970.0137 1967.4997 1965.3874 1963.2639 1961.2344 1958.9130 1956.9525 1954.7044 1952.4928 1950.3211 1948.2725 1945.9732 1944.0217 1941.9327 1939.5446 1937.3567 1935.1984 1933.1473 1931.0671 1928.7767 1926.7039 1924.5318 1922.1760 1920.0604 1918.0164 1915.5885 1913.7196 1911.3304 1909.2668 1906.9945 1905.1870 1902.8879 1900.7107 1898.4408 1896.5232 1894.2597 1892.0561 1889.9304 1887.8053 1885.4106 1883.3401 1881.2785 1879.0608 1876.7771 1874.9524 1872.4107 1870.2892 1868.0713 1866.3607 1864.1958 1861.9681 1859.7464 1857.3723 1855.3411 1852.9835 1851.0005 1848.9517 1846.8510 1844.5509 1842.2500 1840.3815 1838.0409 1835.7147 1833.8416 1831.6828 1829.2889 1827.1862 1825.0943 1822.8690 1820.5508 1818.5631 1816.2712 1814.4469 1812.1616 1810.1545 1807.8745 1805.5061 1803.6560 1801.1764 1798.9672 1796.9959 1794.9666 1792.4917 1790.5919 1788.3902 1786.4192 1783.8910 1781.7709 1779.8048 1777.4015 1775.5152 1773.5089 1771.0698 1768.8759 1766.9580 1764.6045 1762.3651 1760.5048 1758.2990 1756.0602 1753.9656 1751.7638 1749.6040 1747.1554 1745.3360 1742.9355 1740.8482 1738.5186 1736.6715 1734.5800 1734.5748 1736.5669 1738.7728 1741.0483 1742.7886 1745.1971 1747.1735 1749.4657 1751.6129 1753.9796 1755.8206 1758.0522 1760.5094 1762.3995 1764.4297 1766.5635 1768.7107 1770.9112 1773.1640 1775.5250 1777.4909 1779.8380 1781.7437 1783.8853 1786.4753 1788.3168 1790.7728 1792.7898 1794.7449 1797.1211 1799.2424 1801.4988 1803.2594 1805.5369 1807.7559 1810.0064 1812.1718 1814.4922 1816.6062 1818.7379 1820.8378 1822.7416 1825.0884 1827.0461 1829.4217 1831.5277 1833.7238 1836.1141 1838.2103 1840.1697 1842.1960 1844.5178 1846.5904 1848.9211 1851.1865 1853.3350 1855.2911 1857.6067 1859.8156 1861.7409 1864.2278 1866.3047 1868.4693 1870.3681 1872.4067 1874.9789 1877.0147 1879.1564 1881.4484 1883.4559 1885.5107 1887.9867 1889.9188 1891.8931 1894.1480 1896.4958 1898.5316 1900.6111 1903.0830 1905.2540 1906.9971 1909.1349 1911.2887 1913.4531 1916.0126 1918.1535 1920.3710 1922.3379 1924.3535 1926.5977 1928.7723 1930.8222 1933.0036 1935.3297 1937.3916 1939.6493 1941.7681 1943.8608 1945.8967 1948.2305 1950.5748 1952.5929 1954.7625 1957.0553 1959.0520 1961.4225 1963.1903 1965.4209 1967.8087 1969.8292 1971.9780 1974.3201 1976.2294 1978.6912 1980.4223 1982.6611 1984.7583 1986.8990 1989.2613 1991.3282 1993.5833 1995.6661 1998.1348 2000.1240 2002.0851 2004.5364 2006.6418 2008.4687 2011.0587 2013.1142 2015.3890 2017.4544 2019.4578 2021.8521 2023.5797 2026.1832 2028.2799 2030.1114 2032.5949 2034.7271 2036.9537
2069.8357 2067.2834 2065.4563 2063.0553 2060.8387 2058.8151 2056.7470 2054.5451 2052.2609 2050.3559 2047.8839 2045.9215 2043.8857 2041.6799 2039.1105 2037.2544 2034.9597 2032.7547 2030.6432 2028.5574 2026.2865 2024.3365 2021.9434 2019.7843 2017.6974 2015.5443 2013.1599 2011.3792 2008.9354 2006.9058 2004.6441 2002.5401 2000.4214 1998.4684 1996.3089 1994.0202 1991.9220 1989.4434 1987.2861 1985.0519 1983.1671 1980.9392 1978.8660 1976.7358 1974.2454 1972.2151 1969.8999 1968.0534 1965.6277 1963.5070 1961.2784 1959.0483 1957.2094 1954.8889 1952.8601 1950.4792 1948.3157 1946.3355 1944.0388 1942.0855 1940.0485 1937.5533 1935.2702 1933.4517 1930.9449 1929.0029 1926.8985 1924.7248 1922.3937 1920.1694 1917.9506 1915.9539 1913.7529 1911.6089 1909.5264 1907.3578 1904.9914 1903.2145 1900.8083 1898.7879 1896.7354 1894.2670 1892.4530 1890.0097 1888.0652 1885.6394 1883.7199 1881.3445 1879.4867 1876.8923 1874.9852 1872.6141 1870.8237 1868.2995 1866.1560 1863.9963 1862.0885 1859.9779 1857.4056 1855.3829 1853.4378 1851.3337 1848.9403 1846.5625 1844.7663 1842.6319 1840.3786 1838.1621 1835.9751 1833.5644 1831.8278 1829.2559 1827.2390 1824.9909 1822.9816 1820.8081 1818.5502 1816.7280 1814.1571 1812.1594 1809.8509 1807.8507 1805.6101 1803.2910 1801.3314 1799.0198 1796.9619 1794.9739 1792.7911 1790.4427 1788.4162 1786.0501 1784.2210 1781.6855 1779.7288 1777.3549 1775.6520 1773.1349 1770.9192 1768.9264 1766.9903 1764.8286 1762.3772 1760.0608 1758.3406 1755.7597 1753.5232 1751.4889 1749.4814 1747.1721 1745.1553 1743.1090 1740.6648 1738.7826 1736.3293 1734.1251 1732.0237 1731.9226 1734.5049 1736.4591 1738.5422 1740.6792 1742.7483 1745.1353 1747.4410 1749.5748 1751.8130 1753.9642 1755.8846 1758.0012 1760.3945 1762.4735 1764.6559 1766.9554 1768.7074 1771.1523 1773.3203 1775.6254 1777.5650 1779.7656 1781.6620 1784.0485 1786.2578 1788.1618 1790.6496 1792.6030 1795.0576 1797.0564 1799.0270 1801.1917 1803.5751 1805.8502 1808.0842 1809.9229 1812.0783 1814.4799 1816.7122 1818.7138 1820.8127 1822.8406 1825.1839 1827.2629 1829.4278 1831.5930 1833.7870 1835.7801 1838.0115 1840.2687 1842.5712 1844.4316 1846.8107 1849.1898 1850.9159 1853.1213 1855.4003 1857.6147 1859.7724 1862.0865 1863.9436 1866.0945 1868.4226 1870.5985 1872.5688 1874.8281 1877.1005 1879.4254 1881.4668 1883.7477 1885.8291 1887.6488 1890.2579 1892.4075 1894.4434 1896.6407 1898.6540 1900.6572 1902.9626 1905.3350 1907.5927 1909.4508 1911.4653 1913.6489 1916.0272 1917.9830 1920.2344 1922.6158 1924.4591 1926.7439 1929.0067 1931.0437 1933.1070 1935.5961 1937.5975 1939.8143 1942.1250 1944.1191 1946.3129 1948.6394 1950.5332 1952.6291 1955.1223 1957.2420 1959.1159 1961.4976 1963.7749 1965.7669 1968.1542 1969.9152 1972.3472 1974.3031 1976.4421 1978.5749 1981.1263 1983.1103 1985.0971 1987.2775 1989.7437 1991.5055 1993.6899 1996.0209 1998.2997 2000.1952 2002.3909 2004.5874 2006.7626 2009.2198 2011.3810 2013.1567 2015.6290 2017.8712 2019.9103 2022.0198 2024.0146 2026.3560 2028.6919 2030.5919 2032.8712 2034.9252
2067.7008 2065.6685 2063.5157 2061.2585 2059.0187 2057.1084 2055.0784 2052.7542 2050.5790 2048.3818 2046.3971 2044.1685 2041.8423 2039.5321 2037.5113 2035.3899 2032.9762 2030.9665 2028.7983 2026.5886 2024.6234 2022.3257 2020.4145 2018.0213 2015.9556 2013.8384 2011.6180 2009.1756 2007.0289 2005.2936 2002.7937 2000.5498 1998.5922 1996.2655 1994.0819 1992.1707 1989.7031 1987.9240 1985.3101 1983.3039 1981.4128 1978.9729 1976.8839 1974.9107 1972.4814 1970.5785 1967.9667 1965.9510 1963.8885 1961.7603 1959.4148 1957.3048 1955.1109 1953.1254 1950.7400 1948.5628 1946.6844 1944.3874 1942.0242 1940.1773 1937.6863 1935.9264 1933.7258 1931.3242 1929.0115 1927.0140 1924.6997 1922.9025 1920.4078 1918.4166 1916.2336 1914.1237 1911.7108 1909.8452 1907.5161 1905.6219 1903.1329 1901.0414 1899.0204 1896.9553 1894.4171 1892.2036 1890.1766 1888.0745 1885.9222 1883.7358 1881.7500 1879.5680 1877.3379 1875.1368 1872.6363 1870.5534 1868.6780 1866.6112 1864.0022 1862.1059 1859.6362 1857.7801 1855.5032 1853.4721 1851.3821 1849.1054 1846.8861 1844.4879 1842.6768 1840.2982 1838.3361 1835.9218 1833.7218 1831.5621 1829.3046 1827.5702 1825.0641 1822.9311 1820.7370 1818.8193 1816.6109 1814.4539 1811.9727 1809.9853 1807.9093 1805.6645 1803.7482 1801.4488 1799.1641 1797.0230 1794.8659 1792.4735 1790.5011 1788.4773 1786.3572 1784.1805 1781.8072 1779.7288 1777.7084 1775.3546 1773.3561 1770.8477 1768.6935 1766.6183 1764.6657 1762.2297 1760.0537 1758.2314 1755.7895 1753.6986 1751.3817 1749.2510 1747.3458 1744.8092 1742.6757 1740.7643 1738.5328 1736.4374 1734.2244 1732.2893 1729.8273 1729.8983 1732.1955 1734.0398 1736.5399 1738.5569 1740.6946 1742.9235 1744.8396 1747.2482 1749.5627 1751.4673 1753.6972 1755.8147 1758.1505 1760.0297 1762.6164 1764.3371 1766.8677 1769.0092 1770.8115 1773.2554 1775.3891 1777.6713 1779.7770 1781.6484 1784.1850 1786.3735 1788.3058 1790.7036 1792.9117 1794.9602 1797.0094 1799.3551 1801.2132 1803.7410 1805.8770 1807.6686 1810.2362 1812.0668 1814.2503 1816.3105 1818.8187 1821.0853 1823.2459 1825.3969 1827.1495 1829.6415 1831.6083 1833.7239 1836.0963 1838.3318 1840.1641 1842.7257 1844.6501 1846.7847 1849.1493 1850.9727 1853.5909 1855.7801 1857.7166 1859.7502 1861.9847 1864.0189 1866.3435 1868.4235 1870.9605 1872.6910 1875.0739 1877.3767 1879.3997 1881.7859 1883.8846 1885.7864 1887.9302 1890.4375 1892.4541 1894.7118 1896.7196 1898.7591 1901.0901 1903.1695 1905.5636 1907.7269 1909.7068 1911.9121 1914.0957 1916.4352 1918.1833 1920.7541 1922.4734 1924.8521 1927.0065 1928.9939 1931.5830 1933.5039 1935.5071 1938.0155 1940.1437 1942.0677 1944.3623 1946.7520 1948.6843 1950.8466 1953.2165 1954.9662 1957.1777 1959.6181 1961.7302 1963.8678 1966.0332 1968.3031 1970.1666 1972.3651 1974.7076 1976.9000 1979.1808 1981.3943 1983.3981 1985.7290 1987.6004 1989.6894 1991.9398 1993.9829 1996.2513 1998.6396 2000.7570 2002.7079 2004.9484 2007.3779 2009.5657 2011.5798 2013.9626 2015.8530 2018.0809 2020.1446 2022.5207 2024.4836 2026.4725 2028.7913 2030.8978 2033.0956
2065.9226 2064.0894 2061.7521 2059.8407 2057.4897 2055.2791 2053.0053 2051.1668 2048.6239 2046.6867 2044.3056 2042.3028 2040.2658 2038.1836 2036.0048 2033.7460 2031.6552 2029.4426 2027.2496 2024.7682 2022.8371 2020.6228 2018.2562 2016.1429 2013.9370 2011.8267 2009.7525 2007.4879 2005.4105 2003.4669 2001.0732 1998.8970 1996.5023 1994.5490 1992.4323 1990.3639 1987.9271 1985.7087 1983.5399 1981.6488 1979.2467 1977.2349 1975.0511 1972.9239 1970.8141 1968.4371 1966.1673 1964.3266 1962.1406 1959.9265 1957.5439 1955.5218 1953.4653 1951.0347 1948.8204 1946.8661 1944.4543 1942.4498 1940.1355 1938.2003 1935.9964 1933.7194 1931.7984 1929.5823 1927.2149 1924.9449 1923.0528 1920.7633 1918.3874 1916.3947 1914.2749 1912.2272 1909.8140 1907.8683 1905.5656 1903.5917 1901.0626 1899.1737 1897.0369 1894.6999 1892.3257 1890.6089 1888.0141 1886.0035 1883.7346 1881.5950 1879.7473 1877.4626 1875.2451 1873.0150 1871.0383 1868.6343 1866.7486 1864.2788 1862.1561 1860.2314 1857.9085 1855.7314 1853.6741 1851.4261 1849.3524 1847.0220 1844.6092 1842.4287 1840.2994 1838.3208 1836.3015 1834.0680 1831.8213 1829.6909 1827.6073 1825.3925 1823.1977 1820.7389 1818.8390 1816.6839 1814.5538 1812.3144 1810.1696 1807.9423 1805.5593 1803.3501 1801.6397 1799.1456 1797.2474 1795.0946 1792.7308 1790.5190 1788.3905 1785.9813 1784.2101 1781.9073 1779.9048 1777.6444 1775.6006 1773.3795 1770.8095 1768.7301 1766.4837 1764.6324 1762.1965 1760.0881 1758.2238 1756.0449 1753.6582 1751.4596 1749.5169 1747.3067 1744.8259 1742.7697 1740.7551 1738.6593 1736.2211 1734.2971 1732.1137 1729.8134 1727.5868 1727.7100 1729.6278 1731.9835 1734.3156 1736.3179 1738.6669 1740.5551 1743.0554 1744.8714 1747.0894 1749.1632 1751.5580 1753.4550 1755.8373 1758.1956 1760.1579 1762.3708 1764.4596 1766.5095 1768.6891 1771.2196 1773.2256 1775.3488 1777.4589 1779.7908 1782.0450 1784.0263 1786.0651 1788.2164 1790.3415 1792.7968 1794.6732 1797.1797 1799.1854 1801.4235 1803.8247 1805.6690 1807.7181 1810.2435 1812.4570 1814.6586 1816.4904 1818.9728 1821.0298 1822.9590 1825.1456 1827.2261 1829.4051 1831.8478 1834.0120 1836.0659 1838.2991 1840.3897 1842.5035 1844.9976 1847.0817 1849.0900 1851.2414 1853.3973 1855.4870 1857.6810 1860.0157 1862.2509 1864.2918 1866.5137 1868.7689 1870.8715 1872.9526 1875.0875 1877.2744 1879.6021 1881.6943 1884.0585 1886.0231 1888.1053 1890.4172 1892.6851 1894.6426 1896.9250 1899.0875 1901.2304 1903.1919 1905.6809 1907.6652 1909.7015 1912.0929 1914.1901 1916.2398 1918.6821 1920.6507 1922.9976 1924.9973 1927.2259 1929.4035 1931.6421 1933.5321 1935.9646 1938.0153 1940.3825 1942.2192 1944.4981 1946.8565 1948.7737 1951.2484 1953.5226 1955.6937 1957.6116 1959.9476 1961.7656 1964.0404 1966.0809 1968.6002 1970.5363 1973.0362 1975.0796 1977.2243 1979.1489 1981.3132 1983.6014 1986.0641 1988.0122 1990.1077 1992.5903 1994.6459 1996.6433 1998.7062 2001.2230 2003.2575 2005.3929 2007.5739 2009.5870 2011.7218 2014.1810 2016.2895 2018.2516 2020.5843 2022.9435 2024.9496 2027.0514 2029.1925 2031.4567
2064.6042 2062.3645 2059.9076 2058.0395 2055.5402 2053.4131 2051.3659 2049.0555 2046.9533 2044.9160 2042.4725 2040.4594 2038.2019 2035.9171 2034.1464 2031.8163 2029.5017 2027.3688 2025.1741 2023.0379 2020.8038 2018.7073 2016.7131 2014.4438 2012.4066 2010.2690 2007.7816 2005.6932 2003.6584 2001.2455 1998.9766 1996.9461 1994.9137 1992.5334 1990.4205 1988.5793 1986.0367 1983.7695 1982.0007 1979.4579 1977.5968 1975.1095 1973.0243 1971.0863 1968.7200 1966.7185 1964.5264 1962.2246 1960.2245 1958.0228 1955.7503 1953.6343 1951.3070 1949.4487 1947.1678 1944.7937 1942.7075 1940.4653 1938.3529 1936.2384 1933.8884 1931.9694 1929.6913 1927.7146 1925.4711 1922.9447 1921.0528 1919.0352 1916.7393 1914.4014 1912.1911 1909.8745 1908.1210 1905.9433 1903.4978 1901.5641 1899.2930 1897.2234 1895.1154 1892.8119 1890.6099 1888.6069 1886.3637 1883.9306 1881.6174 1879.8690 1877.2848 1875.3642 1873.4094 1871.1958 1868.5887 1866.7175 1864.6752 1862.4433 1860.1488 1857.9035 1855.9902 1853.5034 1851.4812 1849.1809 1847.2721 1844.7673 1842.8402 1840.5932 1838.3338 1836.1567 1834.2168 1831.6785 1829.5834 1827.2784 1825.1933 1822.9894 1821.1278 1818.9602 1816.4464 1814.6519 1812.3921 1810.3551 1808.0121 1805.9117 1803.7285 1801.2006 1799.1082 1797.1647 1794.6919 1792.6840 1790.4823 1788.2526 1786.2135 1784.2610 1781.7178 1779.9222 1777.5517 1775.2830 1773.2831 1770.8786 1768.8303 1766.5328 1764.3615 1762.2293 1760.1573 1757.8018 1755.7448 1753.4230 1751.5399 1749.1001 1747.2744 1744.8678 1742.7189 1740.7503 1738.2813 1736.1227 1733.8407 1731.8829 1729.9486 1727.5720 1725.2524 1725.5678 1727.7688 1729.6260 1731.7255 1734.1644 1736.4622 1738.3406 1740.6899 1742.7744 1745.0223 1747.0568 1749.4031 1751.5642 1753.6267 1755.7702 1758.1843 1760.3063 1762.4872 1764.6930 1766.7508 1768.8034 1770.9355 1773.4293 1775.4861 1777.3698 1779.4722 1782.1125 1784.2581 1786.4507 1788.6085 1790.7769 1792.7206 1794.9563 1796.9095 1799.1842 1801.4630 1803.6870 1805.7538 1807.8169 1809.9315 1812.2573 1814.5972 1816.4832 1818.8657 1821.0976 1823.3671 1825.5353 1827.5015 1829.7254 1831.6420 1833.8137 1836.0977 1838.2277 1840.6881 1842.5841 1844.7210 1847.1210 1849.0730 1851.4723 1853.6625 1855.8997 1858.1152 1859.9556 1862.0534 1864.4201 1866.4227 1868.9565 1870.9734 1873.3888 1875.4099 1877.7075 1879.6701 1881.9115 1883.7854 1886.2244 1888.4604 1890.7856 1892.5548 1894.8189 1896.8428 1899.3520 1901.3452 1903.5187 1905.7495 1907.7637 1909.9490 1912.2703 1914.6679 1916.7585 1919.0385 1921.0535 1923.1591 1925.5460 1927.6660 1929.9061 1931.9007 1934.1392 1936.3792 1938.1228 1940.5939 1942.7265 1944.6439 1946.8191 1949.1179 1951.4207 1953.6286 1955.7390 1958.0079 1960.0918 1962.3059 1964.3674 1966.6510 1968.7011 1971.1769 1973.2802 1975.4051 1977.6782 1979.6986 1981.6614 1984.1589 1986.3562 1988.5823 1990.4435 1992.4705 1994.9543 1996.9252 1999.3774 2001.3808 2003.3511 2005.5159 2008.1537 2009.8512 2012.3999 2014.4914 2016.4304 2018.5966 2021.1999 2022.9151 2025.4256 2027.3205 2029.6594
