ncols         298
nrows         32
xllcorner     100190
yllcorner     101300
cellsize      10
NODATA_value  -9999
2072.9000 2070.8000 2068.8000 2066.7000 2064.6000 2062.5000 2060.4000 2058.4000 2056.3000 2054.2000 2052.1000 2050.0000 2047.9000 2045.9000 2043.8000 2041.7000 2039.6000 2037.5000 2035.5000 2033.4000 2031.3000 2029.2000 2027.1000 2025.1000 2023.0000 2020.9000 2018.8000 2016.7000 2014.7000 2012.6000 2010.5000 2008.4000 2006.3000 2004.3000 2002.2000 2000.1000 1998.0000 1995.9000 1993.9000 1991.8000 1989.7000 1987.6000 1985.5000 1983.5000 1981.4000 1979.3000 1977.2000 1975.1000 1973.1000 1971.0000 1968.9000 1966.8000 1964.7000 1962.7000 1960.6000 1958.5000 1956.4000 1954.3000 1952.3000 1950.2000 1948.1000 1946.0000 1943.9000 1941.9000 1939.8000 1937.7000 1935.6000 1933.5000 1931.5000 1929.4000 1927.3000 1925.2000 1923.1000 1921.0000 1919.0000 1916.9000 1914.8000 1912.7000 1910.6000 1908.6000 1906.5000 1904.4000 1902.3000 1900.2000 1898.2000 1896.1000 1894.0000 1891.9000 1889.8000 1887.8000 1885.7000 1883.6000 1881.5000 1879.4000 1877.4000 1875.3000 1873.2000 1871.1000 1869.0000 1867.0000 1864.9000 1862.8000 1860.7000 1858.6000 1856.6000 1854.5000 1852.4000 1850.3000 1848.2000 1846.2000 1844.1000 1842.0000 1839.9000 1837.8000 1835.8000 1833.7000 1831.6000 1829.5000 1827.4000 1825.4000 1823.3000 1821.2000 1819.1000 1817.0000 1815.0000 1812.9000 1810.8000 1808.7000 1806.6000 1804.6000 1802.5000 1800.4000 1798.3000 1796.2000 1794.2000 1792.1000 1790.0000 1787.9000 1785.8000 1783.7000 1781.7000 1781.7000 1783.7000 1785.8000 1787.9000 1790.0000 1792.1000 1794.2000 1796.2000 1798.3000 1800.4000 1802.5000 1804.6000 1806.6000 1808.7000 1810.8000 1812.9000 1815.0000 1817.0000 1819.1000 1821.2000 1823.3000 1825.4000 1827.4000 1829.5000 1831.6000 1833.7000 1835.8000 1837.8000 1839.9000 1842.0000 1844.1000 1846.2000 1848.2000 1850.3000 1852.4000 1854.5000 1856.6000 1858.6000 1860.7000 1862.8000 1864.9000 1867.0000 1869.0000 1871.1000 1873.2000 1875.3000 1877.4000 1879.4000 1881.5000 1883.6000 1885.7000 1887.8000 1889.8000 1891.9000 1894.0000 1896.1000 1898.2000 1900.2000 1902.3000 1904.4000 1906.5000 1908.6000 1910.6000 1912.7000 1914.8000 1916.9000 1919.0000 1921.0000 1923.1000 1925.2000 1927.3000 1929.4000 1931.5000 1933.5000 1935.6000 1937.7000 1939.8000 1941.9000 1943.9000 1946.0000 1948.1000 1950.2000 1952.3000 1954.3000 1956.4000 1958.5000 1960.6000 1962.7000 1964.7000 1966.8000 1968.9000 1971.0000 1973.1000 1975.1000 1977.2000 1979.3000 1981.4000 1983.5000 1985.5000 1987.6000 1989.7000 1991.8000 1993.9000 1995.9000 1998.0000 2000.1000 2002.2000 2004.3000 2006.3000 2008.4000 2010.5000 2012.6000 2014.7000 2016.7000 2018.8000 2020.9000 2023.0000 2025.1000 2027.1000 2029.2000 2031.3000 2033.4000 2035.5000 2037.5000 2039.6000 2041.7000 2043.8000 2045.9000 2047.9000 2050.0000 2052.1000 2054.2000 2056.3000 2058.4000 2060.4000 2062.5000 2064.6000 2066.7000 2068.8000 2070.8000 2072.9000 2075.0000 2077.1000 2079.2000 2081.2000 2083.3000 2085.4000 2087.5000 2089.6000 2091.6000 2093.7000 2095.8000 2097.9000 2100.0000 2102.0000 2104.1000 2106.2000
2071.0000 2068.9000 2066.9000 2064.8000 2062.7000 2060.6000 2058.5000 2056.4000 2054.4000 2052.3000 2050.2000 2048.1000 2046.0000 2043.9000 2041.9000 2039.8000 2037.7000 2035.6000 2033.5000 2031.4000 2029.4000 2027.3000 2025.2000 2023.1000 2021.0000 2018.9000 2016.9000 2014.8000 2012.7000 2010.6000 2008.5000 2006.4000 2004.3000 2002.3000 2000.2000 1998.1000 1996.0000 1993.9000 1991.8000 1989.8000 1987.7000 1985.6000 1983.5000 1981.4000 1979.3000 1977.3000 1975.2000 1973.1000 1971.0000 1968.9000 1966.8000 1964.8000 1962.7000 1960.6000 1958.5000 1956.4000 1954.3000 1952.3000 1950.2000 1948.1000 1946.0000 1943.9000 1941.8000 1939.8000 1937.7000 1935.6000 1933.5000 1931.4000 1929.3000 1927.2000 1925.2000 1923.1000 1921.0000 1918.9000 1916.8000 1914.7000 1912.7000 1910.6000 1908.5000 1906.4000 1904.3000 1902.2000 1900.2000 1898.1000 1896.0000 1893.9000 1891.8000 1889.7000 1887.7000 1885.6000 1883.5000 1881.4000 1879.3000 1877.2000 1875.2000 1873.1000 1871.0000 1868.9000 1866.8000 1864.7000 1862.7000 1860.6000 1858.5000 1856.4000 1854.3000 1852.2000 1850.1000 1848.1000 1846.0000 1843.9000 1841.8000 1839.7000 1837.6000 1835.6000 1833.5000 1831.4000 1829.3000 1827.2000 1825.1000 1823.1000 1821.0000 1818.9000 1816.8000 1814.7000 1812.6000 1810.6000 1808.5000 1806.4000 1804.3000 1802.2000 1800.1000 1798.1000 1796.0000 1793.9000 1791.8000 1789.7000 1787.6000 1785.6000 1783.5000 1781.4000 1779.3000 1779.3000 1781.4000 1783.5000 1785.6000 1787.6000 1789.7000 1791.8000 1793.9000 1796.0000 1798.1000 1800.1000 1802.2000 1804.3000 1806.4000 1808.5000 1810.6000 1812.6000 1814.7000 1816.8000 1818.9000 1821.0000 1823.1000 1825.1000 1827.2000 1829.3000 1831.4000 1833.5000 1835.6000 1837.6000 1839.7000 1841.8000 1843.9000 1846.0000 1848.1000 1850.1000 1852.2000 1854.3000 1856.4000 1858.5000 1860.6000 1862.7000 1864.7000 1866.8000 1868.9000 1871.0000 1873.1000 1875.2000 1877.2000 1879.3000 1881.4000 1883.5000 1885.6000 1887.7000 1889.7000 1891.8000 1893.9000 1896.0000 1898.1000 1900.2000 1902.2000 1904.3000 1906.4000 1908.5000 1910.6000 1912.7000 1914.7000 1916.8000 1918.9000 1921.0000 1923.1000 1925.2000 1927.2000 1929.3000 1931.4000 1933.5000 1935.6000 1937.7000 1939.8000 1941.8000 1943.9000 1946.0000 1948.1000 1950.2000 1952.3000 1954.3000 1956.4000 1958.5000 1960.6000 1962.7000 1964.8000 1966.8000 1968.9000 1971.0000 1973.1000 1975.2000 1977.3000 1979.3000 1981.4000 1983.5000 1985.6000 1987.7000 1989.8000 1991.8000 1993.9000 1996.0000 1998.1000 2000.2000 2002.3000 2004.3000 2006.4000 2008.5000 2010.6000 2012.7000 2014.8000 2016.9000 2018.9000 2021.0000 2023.1000 2025.2000 2027.3000 2029.4000 2031.4000 2033.5000 2035.6000 2037.7000 2039.8000 2041.9000 2043.9000 2046.0000 2048.1000 2050.2000 2052.3000 2054.4000 2056.4000 2058.5000 2060.6000 2062.7000 2064.8000 2066.9000 2068.9000 2071.0000 2073.1000 2075.2000 2077.3000 2079.4000 2081.4000 2083.5000 2085.6000 2087.7000 2089.8000 2091.9000 2094.0000 2096.0000 2098.1000 2100.2000 2102.3000 2104.4000
2069.1000 2067.1000 2065.0000 2062.9000 2060.8000 2058.7000 2056.6000 2054.5000 2052.4000 2050.4000 2048.3000 2046.2000 2044.1000 2042.0000 2039.9000 2037.8000 2035.8000 2033.7000 2031.6000 2029.5000 2027.4000 2025.3000 2023.2000 2021.1000 2019.1000 2017.0000 2014.9000 2012.8000 2010.7000 2008.6000 2006.5000 2004.4000 2002.4000 2000.3000 1998.2000 1996.1000 1994.0000 1991.9000 1989.8000 1987.7000 1985.7000 1983.6000 1981.5000 1979.4000 1977.3000 1975.2000 1973.1000 1971.0000 1969.0000 1966.9000 1964.8000 1962.7000 1960.6000 1958.5000 1956.4000 1954.3000 1952.3000 1950.2000 1948.1000 1946.0000 1943.9000 1941.8000 1939.7000 1937.6000 1935.6000 1933.5000 1931.4000 1929.3000 1927.2000 1925.1000 1923.0000 1921.0000 1918.9000 1916.8000 1914.7000 1912.6000 1910.5000 1908.4000 1906.3000 1904.3000 1902.2000 1900.1000 1898.0000 1895.9000 1893.8000 1891.7000 1889.6000 1887.6000 1885.5000 1883.4000 1881.3000 1879.2000 1877.1000 1875.0000 1872.9000 1870.9000 1868.8000 1866.7000 1864.6000 1862.5000 1860.4000 1858.3000 1856.2000 1854.2000 1852.1000 1850.0000 1847.9000 1845.8000 1843.7000 1841.6000 1839.5000 1837.5000 1835.4000 1833.3000 1831.2000 1829.1000 1827.0000 1824.9000 1822.8000 1820.8000 1818.7000 1816.6000 1814.5000 1812.4000 1810.3000 1808.2000 1806.2000 1804.1000 1802.0000 1799.9000 1797.8000 1795.7000 1793.6000 1791.5000 1789.5000 1787.4000 1785.3000 1783.2000 1781.1000 1779.0000 1776.9000 1776.9000 1779.0000 1781.1000 1783.2000 1785.3000 1787.4000 1789.5000 1791.5000 1793.6000 1795.7000 1797.8000 1799.9000 1802.0000 1804.1000 1806.2000 1808.2000 1810.3000 1812.4000 1814.5000 1816.6000 1818.7000 1820.8000 1822.8000 1824.9000 1827.0000 1829.1000 1831.2000 1833.3000 1835.4000 1837.5000 1839.5000 1841.6000 1843.7000 1845.8000 1847.9000 1850.0000 1852.1000 1854.2000 1856.2000 1858.3000 1860.4000 1862.5000 1864.6000 1866.7000 1868.8000 1870.9000 1872.9000 1875.0000 1877.1000 1879.2000 1881.3000 1883.4000 1885.5000 1887.6000 1889.6000 1891.7000 1893.8000 1895.9000 1898.0000 1900.1000 1902.2000 1904.3000 1906.3000 1908.4000 1910.5000 1912.6000 1914.7000 1916.8000 1918.9000 1921.0000 1923.0000 1925.1000 1927.2000 1929.3000 1931.4000 1933.5000 1935.6000 1937.6000 1939.7000 1941.8000 1943.9000 1946.0000 1948.1000 1950.2000 1952.3000 1954.3000 1956.4000 1958.5000 1960.6000 1962.7000 1964.8000 1966.9000 1969.0000 1971.0000 1973.1000 1975.2000 1977.3000 1979.4000 1981.5000 1983.6000 1985.7000 1987.7000 1989.8000 1991.9000 1994.0000 1996.1000 1998.2000 2000.3000 2002.4000 2004.4000 2006.5000 2008.6000 2010.7000 2012.8000 2014.9000 2017.0000 2019.1000 2021.1000 2023.2000 2025.3000 2027.4000 2029.5000 2031.6000 2033.7000 2035.8000 2037.8000 2039.9000 2042.0000 2044.1000 2046.2000 2048.3000 2050.4000 2052.4000 2054.5000 2056.6000 2058.7000 2060.8000 2062.9000 2065.0000 2067.1000 2069.1000 2071.2000 2073.3000 2075.4000 2077.5000 2079.6000 2081.7000 2083.8000 2085.8000 2087.9000 2090.0000 2092.1000 2094.2000 2096.3000 2098.4000 2100.5000 2102.5000
2067.3000 2065.2000 2063.1000 2061.0000 2058.9000 2056.8000 2054.7000 2052.6000 2050.5000 2048.4000 2046.4000 2044.3000 2042.2000 2040.1000 2038.0000 2035.9000 2033.8000 2031.7000 2029.6000 2027.5000 2025.5000 2023.4000 2021.3000 2019.2000 2017.1000 2015.0000 2012.9000 2010.8000 2008.7000 2006.6000 2004.5000 2002.5000 2000.4000 1998.3000 1996.2000 1994.1000 1992.0000 1989.9000 1987.8000 1985.7000 1983.6000 1981.5000 1979.5000 1977.4000 1975.3000 1973.2000 1971.1000 1969.0000 1966.9000 1964.8000 1962.7000 1960.6000 1958.5000 1956.5000 1954.4000 1952.3000 1950.2000 1948.1000 1946.0000 1943.9000 1941.8000 1939.7000 1937.6000 1935.5000 1933.5000 1931.4000 1929.3000 1927.2000 1925.1000 1923.0000 1920.9000 1918.8000 1916.7000 1914.6000 1912.5000 1910.5000 1908.4000 1906.3000 1904.2000 1902.1000 1900.0000 1897.9000 1895.8000 1893.7000 1891.6000 1889.6000 1887.5000 1885.4000 1883.3000 1881.2000 1879.1000 1877.0000 1874.9000 1872.8000 1870.7000 1868.6000 1866.6000 1864.5000 1862.4000 1860.3000 1858.2000 1856.1000 1854.0000 1851.9000 1849.8000 1847.7000 1845.6000 1843.6000 1841.5000 1839.4000 1837.3000 1835.2000 1833.1000 1831.0000 1828.9000 1826.8000 1824.7000 1822.6000 1820.6000 1818.5000 1816.4000 1814.3000 1812.2000 1810.1000 1808.0000 1805.9000 1803.8000 1801.7000 1799.6000 1797.6000 1795.5000 1793.4000 1791.3000 1789.2000 1787.1000 1785.0000 1782.9000 1780.8000 1778.7000 1776.6000 1774.6000 1774.6000 1776.6000 1778.7000 1780.8000 1782.9000 1785.0000 1787.1000 1789.2000 1791.3000 1793.4000 1795.5000 1797.6000 1799.6000 1801.7000 1803.8000 1805.9000 1808.0000 1810.1000 1812.2000 1814.3000 1816.4000 1818.5000 1820.6000 1822.6000 1824.7000 1826.8000 1828.9000 1831.0000 1833.1000 1835.2000 1837.3000 1839.4000 1841.5000 1843.6000 1845.6000 1847.7000 1849.8000 1851.9000 1854.0000 1856.1000 1858.2000 1860.3000 1862.4000 1864.5000 1866.6000 1868.6000 1870.7000 1872.8000 1874.9000 1877.0000 1879.1000 1881.2000 1883.3000 1885.4000 1887.5000 1889.6000 1891.6000 1893.7000 1895.8000 1897.9000 1900.0000 1902.1000 1904.2000 1906.3000 1908.4000 1910.5000 1912.5000 1914.6000 1916.7000 1918.8000 1920.9000 1923.0000 1925.1000 1927.2000 1929.3000 1931.4000 1933.5000 1935.5000 1937.6000 1939.7000 1941.8000 1943.9000 1946.0000 1948.1000 1950.2000 1952.3000 1954.4000 1956.5000 1958.5000 1960.6000 1962.7000 1964.8000 1966.9000 1969.0000 1971.1000 1973.2000 1975.3000 1977.4000 1979.5000 1981.5000 1983.6000 1985.7000 1987.8000 1989.9000 1992.0000 1994.1000 1996.2000 1998.3000 2000.4000 2002.5000 2004.5000 2006.6000 2008.7000 2010.8000 2012.9000 2015.0000 2017.1000 2019.2000 2021.3000 2023.4000 2025.5000 2027.5000 2029.6000 2031.7000 2033.8000 2035.9000 2038.0000 2040.1000 2042.2000 2044.3000 2046.4000 2048.4000 2050.5000 2052.6000 2054.7000 2056.8000 2058.9000 2061.0000 2063.1000 2065.2000 2067.3000 2069.4000 2071.4000 2073.5000 2075.6000 2077.7000 2079.8000 2081.9000 2084.0000 2086.1000 2088.2000 2090.3000 2092.4000 2094.4000 2096.5000 2098.6000 2100.7000
2065.4000 2063.3000 2061.2000 2059.1000 2057.0000 2054.9000 2052.8000 2050.7000 2048.6000 2046.5000 2044.4000 2042.3000 2040.3000 2038.2000 2036.1000 2034.0000 2031.9000 2029.8000 2027.7000 2025.6000 2023.5000 2021.4000 2019.3000 2017.2000 2015.1000 2013.0000 2010.9000 2008.8000 2006.7000 2004.7000 2002.6000 2000.5000 1998.4000 1996.3000 1994.2000 1992.1000 1990.0000 1987.9000 1985.8000 1983.7000 1981.6000 1979.5000 1977.4000 1975.3000 1973.2000 1971.1000 1969.0000 1967.0000 1964.9000 1962.8000 1960.7000 1958.6000 1956.5000 1954.4000 1952.3000 1950.2000 1948.1000 1946.0000 1943.9000 1941.8000 1939.7000 1937.6000 1935.5000 1933.4000 1931.4000 1929.3000 1927.2000 1925.1000 1923.0000 1920.9000 1918.8000 1916.7000 1914.6000 1912.5000 1910.4000 1908.3000 1906.2000 1904.1000 1902.0000 1899.9000 1897.8000 1895.7000 1893.7000 1891.6000 1889.5000 1887.4000 1885.3000 1883.2000 1881.1000 1879.0000 1876.9000 1874.8000 1872.7000 1870.6000 1868.5000 1866.4000 1864.3000 1862.2000 1860.1000 1858.1000 1856.0000 1853.9000 1851.8000 1849.7000 1847.6000 1845.5000 1843.4000 1841.3000 1839.2000 1837.1000 1835.0000 1832.9000 1830.8000 1828.7000 1826.6000 1824.5000 1822.4000 1820.4000 1818.3000 1816.2000 1814.1000 1812.0000 1809.9000 1807.8000 1805.7000 1803.6000 1801.5000 1799.4000 1797.3000 1795.2000 1793.1000 1791.0000 1788.9000 1786.8000 1784.8000 1782.7000 1780.6000 1778.5000 1776.4000 1774.3000 1772.2000 1772.2000 1774.3000 1776.4000 1778.5000 1780.6000 1782.7000 1784.8000 1786.8000 1788.9000 1791.0000 1793.1000 1795.2000 1797.3000 1799.4000 1801.5000 1803.6000 1805.7000 1807.8000 1809.9000 1812.0000 1814.1000 1816.2000 1818.3000 1820.4000 1822.4000 1824.5000 1826.6000 1828.7000 1830.8000 1832.9000 1835.0000 1837.1000 1839.2000 1841.3000 1843.4000 1845.5000 1847.6000 1849.7000 1851.8000 1853.9000 1856.0000 1858.1000 1860.1000 1862.2000 1864.3000 1866.4000 1868.5000 1870.6000 1872.7000 1874.8000 1876.9000 1879.0000 1881.1000 1883.2000 1885.3000 1887.4000 1889.5000 1891.6000 1893.7000 1895.7000 1897.8000 1899.9000 1902.0000 1904.1000 1906.2000 1908.3000 1910.4000 1912.5000 1914.6000 1916.7000 1918.8000 1920.9000 1923.0000 1925.1000 1927.2000 1929.3000 1931.4000 1933.4000 1935.5000 1937.6000 1939.7000 1941.8000 1943.9000 1946.0000 1948.1000 1950.2000 1952.3000 1954.4000 1956.5000 1958.6000 1960.7000 1962.8000 1964.9000 1967.0000 1969.0000 1971.1000 1973.2000 1975.3000 1977.4000 1979.5000 1981.6000 1983.7000 1985.8000 1987.9000 1990.0000 1992.1000 1994.2000 1996.3000 1998.4000 2000.5000 2002.6000 2004.7000 2006.7000 2008.8000 2010.9000 2013.0000 2015.1000 2017.2000 2019.3000 2021.4000 2023.5000 2025.6000 2027.7000 2029.8000 2031.9000 2034.0000 2036.1000 2038.2000 2040.3000 2042.3000 2044.4000 2046.5000 2048.6000 2050.7000 2052.8000 2054.9000 2057.0000 2059.1000 2061.2000 2063.3000 2065.4000 2067.5000 2069.6000 2071.7000 2073.8000 2075.9000 2077.9000 2080.0000 2082.1000 2084.2000 2086.3000 2088.4000 2090.5000 2092.6000 2094.7000 2096.8000 2098.9000
2063.5000 2061.4000 2059.3000 2057.2000 2055.1000 2053.0000 2050.9000 2048.8000 2046.7000 2044.6000 2042.5000 2040.4000 2038.3000 2036.2000 2034.1000 2032.0000 2029.9000 2027.8000 2025.7000 2023.6000 2021.5000 2019.4000 2017.4000 2015.3000 2013.2000 2011.1000 2009.0000 2006.9000 2004.8000 2002.7000 2000.6000 1998.5000 1996.4000 1994.3000 1992.2000 1990.1000 1988.0000 1985.9000 1983.8000 1981.7000 1979.6000 1977.5000 1975.4000 1973.3000 1971.2000 1969.1000 1967.0000 1964.9000 1962.8000 1960.7000 1958.6000 1956.5000 1954.4000 1952.3000 1950.2000 1948.1000 1946.0000 1943.9000 1941.8000 1939.7000 1937.6000 1935.5000 1933.4000 1931.3000 1929.2000 1927.1000 1925.1000 1923.0000 1920.9000 1918.8000 1916.7000 1914.6000 1912.5000 1910.4000 1908.3000 1906.2000 1904.1000 1902.0000 1899.9000 1897.8000 1895.7000 1893.6000 1891.5000 1889.4000 1887.3000 1885.2000 1883.1000 1881.0000 1878.9000 1876.8000 1874.7000 1872.6000 1870.5000 1868.4000 1866.3000 1864.2000 1862.1000 1860.0000 1857.9000 1855.8000 1853.7000 1851.6000 1849.5000 1847.4000 1845.3000 1843.2000 1841.1000 1839.0000 1836.9000 1834.8000 1832.7000 1830.7000 1828.6000 1826.5000 1824.4000 1822.3000 1820.2000 1818.1000 1816.0000 1813.9000 1811.8000 1809.7000 1807.6000 1805.5000 1803.4000 1801.3000 1799.2000 1797.1000 1795.0000 1792.9000 1790.8000 1788.7000 1786.6000 1784.5000 1782.4000 1780.3000 1778.2000 1776.1000 1774.0000 1771.9000 1769.8000 1769.8000 1771.9000 1774.0000 1776.1000 1778.2000 1780.3000 1782.4000 1784.5000 1786.6000 1788.7000 1790.8000 1792.9000 1795.0000 1797.1000 1799.2000 1801.3000 1803.4000 1805.5000 1807.6000 1809.7000 1811.8000 1813.9000 1816.0000 1818.1000 1820.2000 1822.3000 1824.4000 1826.5000 1828.6000 1830.7000 1832.7000 1834.8000 1836.9000 1839.0000 1841.1000 1843.2000 1845.3000 1847.4000 1849.5000 1851.6000 1853.7000 1855.8000 1857.9000 1860.0000 1862.1000 1864.2000 1866.3000 1868.4000 1870.5000 1872.6000 1874.7000 1876.8000 1878.9000 1881.0000 1883.1000 1885.2000 1887.3000 1889.4000 1891.5000 1893.6000 1895.7000 1897.8000 1899.9000 1902.0000 1904.1000 1906.2000 1908.3000 1910.4000 1912.5000 1914.6000 1916.7000 1918.8000 1920.9000 1923.0000 1925.1000 1927.1000 1929.2000 1931.3000 1933.4000 1935.5000 1937.6000 1939.7000 1941.8000 1943.9000 1946.0000 1948.1000 1950.2000 1952.3000 1954.4000 1956.5000 1958.6000 1960.7000 1962.8000 1964.9000 1967.0000 1969.1000 1971.2000 1973.3000 1975.4000 1977.5000 1979.6000 1981.7000 1983.8000 1985.9000 1988.0000 1990.1000 1992.2000 1994.3000 1996.4000 1998.5000 2000.6000 2002.7000 2004.8000 2006.9000 2009.0000 2011.1000 2013.2000 2015.3000 2017.4000 2019.4000 2021.5000 2023.6000 2025.7000 2027.8000 2029.9000 2032.0000 2034.1000 2036.2000 2038.3000 2040.4000 2042.5000 2044.6000 2046.7000 2048.8000 2050.9000 2053.0000 2055.1000 2057.2000 2059.3000 2061.4000 2063.5000 2065.6000 2067.7000 2069.8000 2071.9000 2074.0000 2076.1000 2078.2000 2080.3000 2082.4000 2084.5000 2086.6000 2088.7000 2090.8000 2092.9000 2095.0000 2097.1000
2061.6000 2059.5000 2057.4000 2055.3000 2053.2000 2051.1000 2049.0000 2046.9000 2044.8000 2042.7000 2040.6000 2038.5000 2036.4000 2034.3000 2032.2000 2030.1000 2028.0000 2025.9000 2023.8000 2021.7000 2019.6000 2017.5000 2015.4000 2013.3000 2011.2000 2009.1000 2007.0000 2004.9000 2002.8000 2000.7000 1998.6000 1996.5000 1994.4000 1992.3000 1990.2000 1988.1000 1986.0000 1983.9000 1981.8000 1979.7000 1977.6000 1975.5000 1973.4000 1971.3000 1969.2000 1967.1000 1965.0000 1962.9000 1960.8000 1958.7000 1956.6000 1954.5000 1952.4000 1950.3000 1948.2000 1946.1000 1944.0000 1941.8000 1939.7000 1937.6000 1935.5000 1933.4000 1931.3000 1929.2000 1927.1000 1925.0000 1922.9000 1920.8000 1918.7000 1916.6000 1914.5000 1912.4000 1910.3000 1908.2000 1906.1000 1904.0000 1901.9000 1899.8000 1897.7000 1895.6000 1893.5000 1891.4000 1889.3000 1887.2000 1885.1000 1883.0000 1880.9000 1878.8000 1876.7000 1874.6000 1872.5000 1870.4000 1868.3000 1866.2000 1864.1000 1862.0000 1859.9000 1857.8000 1855.7000 1853.6000 1851.5000 1849.4000 1847.3000 1845.2000 1843.1000 1841.0000 1838.9000 1836.8000 1834.7000 1832.6000 1830.5000 1828.4000 1826.3000 1824.2000 1822.1000 1820.0000 1817.9000 1815.8000 1813.7000 1811.6000 1809.5000 1807.4000 1805.3000 1803.2000 1801.1000 1799.0000 1796.9000 1794.8000 1792.7000 1790.6000 1788.5000 1786.4000 1784.3000 1782.2000 1780.1000 1778.0000 1775.9000 1773.7000 1771.6000 1769.5000 1767.4000 1767.4000 1769.5000 1771.6000 1773.7000 1775.9000 1778.0000 1780.1000 1782.2000 1784.3000 1786.4000 1788.5000 1790.6000 1792.7000 1794.8000 1796.9000 1799.0000 1801.1000 1803.2000 1805.3000 1807.4000 1809.5000 1811.6000 1813.7000 1815.8000 1817.9000 1820.0000 1822.1000 1824.2000 1826.3000 1828.4000 1830.5000 1832.6000 1834.7000 1836.8000 1838.9000 1841.0000 1843.1000 1845.2000 1847.3000 1849.4000 1851.5000 1853.6000 1855.7000 1857.8000 1859.9000 1862.0000 1864.1000 1866.2000 1868.3000 1870.4000 1872.5000 1874.6000 1876.7000 1878.8000 1880.9000 1883.0000 1885.1000 1887.2000 1889.3000 1891.4000 1893.5000 1895.6000 1897.7000 1899.8000 1901.9000 1904.0000 1906.1000 1908.2000 1910.3000 1912.4000 1914.5000 1916.6000 1918.7000 1920.8000 1922.9000 1925.0000 1927.1000 1929.2000 1931.3000 1933.4000 1935.5000 1937.6000 1939.7000 1941.8000 1944.0000 1946.1000 1948.2000 1950.3000 1952.4000 1954.5000 1956.6000 1958.7000 1960.8000 1962.9000 1965.0000 1967.1000 1969.2000 1971.3000 1973.4000 1975.5000 1977.6000 1979.7000 1981.8000 1983.9000 1986.0000 1988.1000 1990.2000 1992.3000 1994.4000 1996.5000 1998.6000 2000.7000 2002.8000 2004.9000 2007.0000 2009.1000 2011.2000 2013.3000 2015.4000 2017.5000 2019.6000 2021.7000 2023.8000 2025.9000 2028.0000 2030.1000 2032.2000 2034.3000 2036.4000 2038.5000 2040.6000 2042.7000 2044.8000 2046.9000 2049.0000 2051.1000 2053.2000 2055.3000 2057.4000 2059.5000 2061.6000 2063.7000 2065.8000 2067.9000 2070.0000 2072.1000 2074.2000 2076.3000 2078.4000 2080.5000 2082.6000 2084.7000 2086.8000 2088.9000 2091.0000 2093.1000 2095.2000
2059.7000 2057.6000 2055.5000 2053.4000 2051.3000 2049.2000 2047.1000 2045.0000 2042.9000 2040.8000 2038.7000 2036.6000 2034.5000 2032.4000 2030.3000 2028.2000 2026.1000 2024.0000 2021.9000 2019.7000 2017.6000 2015.5000 2013.4000 2011.3000 2009.2000 2007.1000 2005.0000 2002.9000 2000.8000 1998.7000 1996.6000 1994.5000 1992.4000 1990.3000 1988.2000 1986.1000 1984.0000 1981.9000 1979.8000 1977.7000 1975.5000 1973.4000 1971.3000 1969.2000 1967.1000 1965.0000 1962.9000 1960.8000 1958.7000 1956.6000 1954.5000 1952.4000 1950.3000 1948.2000 1946.1000 1944.0000 1941.9000 1939.8000 1937.7000 1935.6000 1933.5000 1931.3000 1929.2000 1927.1000 1925.0000 1922.9000 1920.8000 1918.7000 1916.6000 1914.5000 1912.4000 1910.3000 1908.2000 1906.1000 1904.0000 1901.9000 1899.8000 1897.7000 1895.6000 1893.5000 1891.4000 1889.3000 1887.1000 1885.0000 1882.9000 1880.8000 1878.7000 1876.6000 1874.5000 1872.4000 1870.3000 1868.2000 1866.1000 1864.0000 1861.9000 1859.8000 1857.7000 1855.6000 1853.5000 1851.4000 1849.3000 1847.2000 1845.1000 1843.0000 1840.8000 1838.7000 1836.6000 1834.5000 1832.4000 1830.3000 1828.2000 1826.1000 1824.0000 1821.9000 1819.8000 1817.7000 1815.6000 1813.5000 1811.4000 1809.3000 1807.2000 1805.1000 1803.0000 1800.9000 1798.8000 1796.6000 1794.5000 1792.4000 1790.3000 1788.2000 1786.1000 1784.0000 1781.9000 1779.8000 1777.7000 1775.6000 1773.5000 1771.4000 1769.3000 1767.2000 1765.1000 1765.1000 1767.2000 1769.3000 1771.4000 1773.5000 1775.6000 1777.7000 1779.8000 1781.9000 1784.0000 1786.1000 1788.2000 1790.3000 1792.4000 1794.5000 1796.6000 1798.8000 1800.9000 1803.0000 1805.1000 1807.2000 1809.3000 1811.4000 1813.5000 1815.6000 1817.7000 1819.8000 1821.9000 1824.0000 1826.1000 1828.2000 1830.3000 1832.4000 1834.5000 1836.6000 1838.7000 1840.8000 1843.0000 1845.1000 1847.2000 1849.3000 1851.4000 1853.5000 1855.6000 1857.7000 1859.8000 1861.9000 1864.0000 1866.1000 1868.2000 1870.3000 1872.4000 1874.5000 1876.6000 1878.7000 1880.8000 1882.9000 1885.0000 1887.1000 1889.3000 1891.4000 1893.5000 1895.6000 1897.7000 1899.8000 1901.9000 1904.0000 1906.1000 1908.2000 1910.3000 1912.4000 1914.5000 1916.6000 1918.7000 1920.8000 1922.9000 1925.0000 1927.1000 1929.2000 1931.3000 1933.5000 1935.6000 1937.7000 1939.8000 1941.9000 1944.0000 1946.1000 1948.2000 1950.3000 1952.4000 1954.5000 1956.6000 1958.7000 1960.8000 1962.9000 1965.0000 1967.1000 1969.2000 1971.3000 1973.4000 1975.5000 1977.7000 1979.8000 1981.9000 1984.0000 1986.1000 1988.2000 1990.3000 1992.4000 1994.5000 1996.6000 1998.7000 2000.8000 2002.9000 2005.0000 2007.1000 2009.2000 2011.3000 2013.4000 2015.5000 2017.6000 2019.7000 2021.9000 2024.0000 2026.1000 2028.2000 2030.3000 2032.4000 2034.5000 2036.6000 2038.7000 2040.8000 2042.9000 2045.0000 2047.1000 2049.2000 2051.3000 2053.4000 2055.5000 2057.6000 2059.7000 2061.8000 2063.9000 2066.1000 2068.2000 2070.3000 2072.4000 2074.5000 2076.6000 2078.7000 2080.8000 2082.9000 2085.0000 2087.1000 2089.2000 2091.3000 2093.4000
2057.9000 2055.7000 2053.6000 2051.5000 2049.4000 2047.3000 2045.2000 2043.1000 2041.0000 2038.9000 2036.8000 2034.7000 2032.6000 2030.4000 2028.3000 2026.2000 2024.1000 2022.0000 2019.9000 2017.8000 2015.7000 2013.6000 2011.5000 2009.4000 2007.3000 2005.2000 2003.0000 2000.9000 1998.8000 1996.7000 1994.6000 1992.5000 1990.4000 1988.3000 1986.2000 1984.1000 1982.0000 1979.9000 1977.7000 1975.6000 1973.5000 1971.4000 1969.3000 1967.2000 1965.1000 1963.0000 1960.9000 1958.8000 1956.7000 1954.6000 1952.4000 1950.3000 1948.2000 1946.1000 1944.0000 1941.9000 1939.8000 1937.7000 1935.6000 1933.5000 1931.4000 1929.3000 1927.1000 1925.0000 1922.9000 1920.8000 1918.7000 1916.6000 1914.5000 1912.4000 1910.3000 1908.2000 1906.1000 1904.0000 1901.8000 1899.7000 1897.6000 1895.5000 1893.4000 1891.3000 1889.2000 1887.1000 1885.0000 1882.9000 1880.8000 1878.7000 1876.5000 1874.4000 1872.3000 1870.2000 1868.1000 1866.0000 1863.9000 1861.8000 1859.7000 1857.6000 1855.5000 1853.4000 1851.2000 1849.1000 1847.0000 1844.9000 1842.8000 1840.7000 1838.6000 1836.5000 1834.4000 1832.3000 1830.2000 1828.1000 1826.0000 1823.8000 1821.7000 1819.6000 1817.5000 1815.4000 1813.3000 1811.2000 1809.1000 1807.0000 1804.9000 1802.8000 1800.7000 1798.5000 1796.4000 1794.3000 1792.2000 1790.1000 1788.0000 1785.9000 1783.8000 1781.7000 1779.6000 1777.5000 1775.4000 1773.2000 1771.1000 1769.0000 1766.9000 1764.8000 1762.7000 1762.7000 1764.8000 1766.9000 1769.0000 1771.1000 1773.2000 1775.4000 1777.5000 1779.6000 1781.7000 1783.8000 1785.9000 1788.0000 1790.1000 1792.2000 1794.3000 1796.4000 1798.5000 1800.7000 1802.8000 1804.9000 1807.0000 1809.1000 1811.2000 1813.3000 1815.4000 1817.5000 1819.6000 1821.7000 1823.8000 1826.0000 1828.1000 1830.2000 1832.3000 1834.4000 1836.5000 1838.6000 1840.7000 1842.8000 1844.9000 1847.0000 1849.1000 1851.2000 1853.4000 1855.5000 1857.6000 1859.7000 1861.8000 1863.9000 1866.0000 1868.1000 1870.2000 1872.3000 1874.4000 1876.5000 1878.7000 1880.8000 1882.9000 1885.0000 1887.1000 1889.2000 1891.3000 1893.4000 1895.5000 1897.6000 1899.7000 1901.8000 1904.0000 1906.1000 1908.2000 1910.3000 1912.4000 1914.5000 1916.6000 1918.7000 1920.8000 1922.9000 1925.0000 1927.1000 1929.3000 1931.4000 1933.5000 1935.6000 1937.7000 1939.8000 1941.9000 1944.0000 1946.1000 1948.2000 1950.3000 1952.4000 1954.6000 1956.7000 1958.8000 1960.9000 1963.0000 1965.1000 1967.2000 1969.3000 1971.4000 1973.5000 1975.6000 1977.7000 1979.9000 1982.0000 1984.1000 1986.2000 1988.3000 1990.4000 1992.5000 1994.6000 1996.7000 1998.8000 2000.9000 2003.0000 2005.2000 2007.3000 2009.4000 2011.5000 2013.6000 2015.7000 2017.8000 2019.9000 2022.0000 2024.1000 2026.2000 2028.3000 2030.4000 2032.6000 2034.7000 2036.8000 2038.9000 2041.0000 2043.1000 2045.2000 2047.3000 2049.4000 2051.5000 2053.6000 2055.7000 2057.9000 2060.0000 2062.1000 2064.2000 2066.3000 2068.4000 2070.5000 2072.6000 2074.7000 2076.8000 2078.9000 2081.0000 2083.2000 2085.3000 2087.4000 2089.5000 2091.6000
2056.0000 2053.9000 2051.8000 2049.6000 2047.5000 2045.4000 2043.3000 2041.2000 2039.1000 2037.0000 2034.9000 2032.7000 2030.6000 2028.5000 2026.4000 2024.3000 2022.2000 2020.1000 2018.0000 2015.9000 2013.7000 2011.6000 2009.5000 2007.4000 2005.3000 2003.2000 2001.1000 1999.0000 1996.8000 1994.7000 1992.6000 1990.5000 1988.4000 1986.3000 1984.2000 1982.1000 1980.0000 1977.8000 1975.7000 1973.6000 1971.5000 1969.4000 1967.3000 1965.2000 1963.1000 1960.9000 1958.8000 1956.7000 1954.6000 1952.5000 1950.4000 1948.3000 1946.2000 1944.1000 1941.9000 1939.8000 1937.7000 1935.6000 1933.5000 1931.4000 1929.3000 1927.2000 1925.0000 1922.9000 1920.8000 1918.7000 1916.6000 1914.5000 1912.4000 1910.3000 1908.2000 1906.0000 1903.9000 1901.8000 1899.7000 1897.6000 1895.5000 1893.4000 1891.3000 1889.1000 1887.0000 1884.9000 1882.8000 1880.7000 1878.6000 1876.5000 1874.4000 1872.3000 1870.1000 1868.0000 1865.9000 1863.8000 1861.7000 1859.6000 1857.5000 1855.4000 1853.2000 1851.1000 1849.0000 1846.9000 1844.8000 1842.7000 1840.6000 1838.5000 1836.4000 1834.2000 1832.1000 1830.0000 1827.9000 1825.8000 1823.7000 1821.6000 1819.5000 1817.4000 1815.2000 1813.1000 1811.0000 1808.9000 1806.8000 1804.7000 1802.6000 1800.5000 1798.3000 1796.2000 1794.1000 1792.0000 1789.9000 1787.8000 1785.7000 1783.6000 1781.5000 1779.3000 1777.2000 1775.1000 1773.0000 1770.9000 1768.8000 1766.7000 1764.6000 1762.4000 1760.3000 1760.3000 1762.4000 1764.6000 1766.7000 1768.8000 1770.9000 1773.0000 1775.1000 1777.2000 1779.3000 1781.5000 1783.6000 1785.7000 1787.8000 1789.9000 1792.0000 1794.1000 1796.2000 1798.3000 1800.5000 1802.6000 1804.7000 1806.8000 1808.9000 1811.0000 1813.1000 1815.2000 1817.4000 1819.5000 1821.6000 1823.7000 1825.8000 1827.9000 1830.0000 1832.1000 1834.2000 1836.4000 1838.5000 1840.6000 1842.7000 1844.8000 1846.9000 1849.0000 1851.1000 1853.2000 1855.4000 1857.5000 1859.6000 1861.7000 1863.8000 1865.9000 1868.0000 1870.1000 1872.3000 1874.4000 1876.5000 1878.6000 1880.7000 1882.8000 1884.9000 1887.0000 1889.1000 1891.3000 1893.4000 1895.5000 1897.6000 1899.7000 1901.8000 1903.9000 1906.0000 1908.2000 1910.3000 1912.4000 1914.5000 1916.6000 1918.7000 1920.8000 1922.9000 1925.0000 1927.2000 1929.3000 1931.4000 1933.5000 1935.6000 1937.7000 1939.8000 1941.9000 1944.1000 1946.2000 1948.3000 1950.4000 1952.5000 1954.6000 1956.7000 1958.8000 1960.9000 1963.1000 1965.2000 1967.3000 1969.4000 1971.5000 1973.6000 1975.7000 1977.8000 1980.0000 1982.1000 1984.2000 1986.3000 1988.4000 1990.5000 1992.6000 1994.7000 1996.8000 1999.0000 2001.1000 2003.2000 2005.3000 2007.4000 2009.5000 2011.6000 2013.7000 2015.9000 2018.0000 2020.1000 2022.2000 2024.3000 2026.4000 2028.5000 2030.6000 2032.7000 2034.9000 2037.0000 2039.1000 2041.2000 2043.3000 2045.4000 2047.5000 2049.6000 2051.8000 2053.9000 2056.0000 2058.1000 2060.2000 2062.3000 2064.4000 2066.5000 2068.6000 2070.8000 2072.9000 2075.0000 2077.1000 2079.2000 2081.3000 2083.4000 2085.5000 2087.6000 2089.8000
2054.1000 2052.0000 2049.9000 2047.7000 2045.6000 2043.5000 2041.4000 2039.3000 2037.2000 2035.1000 2032.9000 2030.8000 2028.7000 2026.6000 2024.5000 2022.4000 2020.2000 2018.1000 2016.0000 2013.9000 2011.8000 2009.7000 2007.6000 2005.4000 2003.3000 2001.2000 1999.1000 1997.0000 1994.9000 1992.8000 1990.6000 1988.5000 1986.4000 1984.3000 1982.2000 1980.1000 1977.9000 1975.8000 1973.7000 1971.6000 1969.5000 1967.4000 1965.3000 1963.1000 1961.0000 1958.9000 1956.8000 1954.7000 1952.6000 1950.4000 1948.3000 1946.2000 1944.1000 1942.0000 1939.9000 1937.8000 1935.6000 1933.5000 1931.4000 1929.3000 1927.2000 1925.1000 1922.9000 1920.8000 1918.7000 1916.6000 1914.5000 1912.4000 1910.3000 1908.1000 1906.0000 1903.9000 1901.8000 1899.7000 1897.6000 1895.5000 1893.3000 1891.2000 1889.1000 1887.0000 1884.9000 1882.8000 1880.6000 1878.5000 1876.4000 1874.3000 1872.2000 1870.1000 1868.0000 1865.8000 1863.7000 1861.6000 1859.5000 1857.4000 1855.3000 1853.1000 1851.0000 1848.9000 1846.8000 1844.7000 1842.6000 1840.5000 1838.3000 1836.2000 1834.1000 1832.0000 1829.9000 1827.8000 1825.6000 1823.5000 1821.4000 1819.3000 1817.2000 1815.1000 1813.0000 1810.8000 1808.7000 1806.6000 1804.5000 1802.4000 1800.3000 1798.2000 1796.0000 1793.9000 1791.8000 1789.7000 1787.6000 1785.5000 1783.3000 1781.2000 1779.1000 1777.0000 1774.9000 1772.8000 1770.7000 1768.5000 1766.4000 1764.3000 1762.2000 1760.1000 1758.0000 1758.0000 1760.1000 1762.2000 1764.3000 1766.4000 1768.5000 1770.7000 1772.8000 1774.9000 1777.0000 1779.1000 1781.2000 1783.3000 1785.5000 1787.6000 1789.7000 1791.8000 1793.9000 1796.0000 1798.2000 1800.3000 1802.4000 1804.5000 1806.6000 1808.7000 1810.8000 1813.0000 1815.1000 1817.2000 1819.3000 1821.4000 1823.5000 1825.6000 1827.8000 1829.9000 1832.0000 1834.1000 1836.2000 1838.3000 1840.5000 1842.6000 1844.7000 1846.8000 1848.9000 1851.0000 1853.1000 1855.3000 1857.4000 1859.5000 1861.6000 1863.7000 1865.8000 1868.0000 1870.1000 1872.2000 1874.3000 1876.4000 1878.5000 1880.6000 1882.8000 1884.9000 1887.0000 1889.1000 1891.2000 1893.3000 1895.5000 1897.6000 1899.7000 1901.8000 1903.9000 1906.0000 1908.1000 1910.3000 1912.4000 1914.5000 1916.6000 1918.7000 1920.8000 1922.9000 1925.1000 1927.2000 1929.3000 1931.4000 1933.5000 1935.6000 1937.8000 1939.9000 1942.0000 1944.1000 1946.2000 1948.3000 1950.4000 1952.6000 1954.7000 1956.8000 1958.9000 1961.0000 1963.1000 1965.3000 1967.4000 1969.5000 1971.6000 1973.7000 1975.8000 1977.9000 1980.1000 1982.2000 1984.3000 1986.4000 1988.5000 1990.6000 1992.8000 1994.9000 1997.0000 1999.1000 2001.2000 2003.3000 2005.4000 2007.6000 2009.7000 2011.8000 2013.9000 2016.0000 2018.1000 2020.2000 2022.4000 2024.5000 2026.6000 2028.7000 2030.8000 2032.9000 2035.1000 2037.2000 2039.3000 2041.4000 2043.5000 2045.6000 2047.7000 2049.9000 2052.0000 2054.1000 2056.2000 2058.3000 2060.4000 2062.6000 2064.7000 2066.8000 2068.9000 2071.0000 2073.1000 2075.2000 2077.4000 2079.5000 2081.6000 2083.7000 2085.8000 2087.9000
2052.2000 2050.1000 2048.0000 2045.9000 2043.7000 2041.6000 2039.5000 2037.4000 2035.3000 2033.1000 2031.0000 2028.9000 2026.8000 2024.7000 2022.5000 2020.4000 2018.3000 2016.2000 2014.1000 2012.0000 2009.8000 2007.7000 2005.6000 2003.5000 2001.4000 1999.2000 1997.1000 1995.0000 1992.9000 1990.8000 1988.6000 1986.5000 1984.4000 1982.3000 1980.2000 1978.1000 1975.9000 1973.8000 1971.7000 1969.6000 1967.5000 1965.3000 1963.2000 1961.1000 1959.0000 1956.9000 1954.7000 1952.6000 1950.5000 1948.4000 1946.3000 1944.2000 1942.0000 1939.9000 1937.8000 1935.7000 1933.6000 1931.4000 1929.3000 1927.2000 1925.1000 1923.0000 1920.9000 1918.7000 1916.6000 1914.5000 1912.4000 1910.3000 1908.1000 1906.0000 1903.9000 1901.8000 1899.7000 1897.5000 1895.4000 1893.3000 1891.2000 1889.1000 1887.0000 1884.8000 1882.7000 1880.6000 1878.5000 1876.4000 1874.2000 1872.1000 1870.0000 1867.9000 1865.8000 1863.6000 1861.5000 1859.4000 1857.3000 1855.2000 1853.1000 1850.9000 1848.8000 1846.7000 1844.6000 1842.5000 1840.3000 1838.2000 1836.1000 1834.0000 1831.9000 1829.7000 1827.6000 1825.5000 1823.4000 1821.3000 1819.2000 1817.0000 1814.9000 1812.8000 1810.7000 1808.6000 1806.4000 1804.3000 1802.2000 1800.1000 1798.0000 1795.8000 1793.7000 1791.6000 1789.5000 1787.4000 1785.3000 1783.1000 1781.0000 1778.9000 1776.8000 1774.7000 1772.5000 1770.4000 1768.3000 1766.2000 1764.1000 1761.9000 1759.8000 1757.7000 1755.6000 1755.6000 1757.7000 1759.8000 1761.9000 1764.1000 1766.2000 1768.3000 1770.4000 1772.5000 1774.7000 1776.8000 1778.9000 1781.0000 1783.1000 1785.3000 1787.4000 1789.5000 1791.6000 1793.7000 1795.8000 1798.0000 1800.1000 1802.2000 1804.3000 1806.4000 1808.6000 1810.7000 1812.8000 1814.9000 1817.0000 1819.2000 1821.3000 1823.4000 1825.5000 1827.6000 1829.7000 1831.9000 1834.0000 1836.1000 1838.2000 1840.3000 1842.5000 1844.6000 1846.7000 1848.8000 1850.9000 1853.1000 1855.2000 1857.3000 1859.4000 1861.5000 1863.6000 1865.8000 1867.9000 1870.0000 1872.1000 1874.2000 1876.4000 1878.5000 1880.6000 1882.7000 1884.8000 1887.0000 1889.1000 1891.2000 1893.3000 1895.4000 1897.5000 1899.7000 1901.8000 1903.9000 1906.0000 1908.1000 1910.3000 1912.4000 1914.5000 1916.6000 1918.7000 1920.9000 1923.0000 1925.1000 1927.2000 1929.3000 1931.4000 1933.6000 1935.7000 1937.8000 1939.9000 1942.0000 1944.2000 1946.3000 1948.4000 1950.5000 1952.6000 1954.7000 1956.9000 1959.0000 1961.1000 1963.2000 1965.3000 1967.5000 1969.6000 1971.7000 1973.8000 1975.9000 1978.1000 1980.2000 1982.3000 1984.4000 1986.5000 1988.6000 1990.8000 1992.9000 1995.0000 1997.1000 1999.2000 2001.4000 2003.5000 2005.6000 2007.7000 2009.8000 2012.0000 2014.1000 2016.2000 2018.3000 2020.4000 2022.5000 2024.7000 2026.8000 2028.9000 2031.0000 2033.1000 2035.3000 2037.4000 2039.5000 2041.6000 2043.7000 2045.9000 2048.0000 2050.1000 2052.2000 2054.3000 2056.4000 2058.6000 2060.7000 2062.8000 2064.9000 2067.0000 2069.2000 2071.3000 2073.4000 2075.5000 2077.6000 2079.8000 2081.9000 2084.0000 2086.1000
2050.3000 2048.2000 2046.1000 2044.0000 2041.8000 2039.7000 2037.6000 2035.5000 2033.4000 2031.2000 2029.1000 2027.0000 2024.9000 2022.7000 2020.6000 2018.5000 2016.4000 2014.3000 2012.1000 2010.0000 2007.9000 2005.8000 2003.6000 2001.5000 1999.4000 1997.3000 1995.2000 1993.0000 1990.9000 1988.8000 1986.7000 1984.5000 1982.4000 1980.3000 1978.2000 1976.1000 1973.9000 1971.8000 1969.7000 1967.6000 1965.4000 1963.3000 1961.2000 1959.1000 1957.0000 1954.8000 1952.7000 1950.6000 1948.5000 1946.3000 1944.2000 1942.1000 1940.0000 1937.9000 1935.7000 1933.6000 1931.5000 1929.4000 1927.2000 1925.1000 1923.0000 1920.9000 1918.8000 1916.6000 1914.5000 1912.4000 1910.3000 1908.1000 1906.0000 1903.9000 1901.8000 1899.7000 1897.5000 1895.4000 1893.3000 1891.2000 1889.0000 1886.9000 1884.8000 1882.7000 1880.6000 1878.4000 1876.3000 1874.2000 1872.1000 1869.9000 1867.8000 1865.7000 1863.6000 1861.5000 1859.3000 1857.2000 1855.1000 1853.0000 1850.8000 1848.7000 1846.6000 1844.5000 1842.4000 1840.2000 1838.1000 1836.0000 1833.9000 1831.7000 1829.6000 1827.5000 1825.4000 1823.3000 1821.1000 1819.0000 1816.9000 1814.8000 1812.6000 1810.5000 1808.4000 1806.3000 1804.2000 1802.0000 1799.9000 1797.8000 1795.7000 1793.5000 1791.4000 1789.3000 1787.2000 1785.1000 1782.9000 1780.8000 1778.7000 1776.6000 1774.4000 1772.3000 1770.2000 1768.1000 1766.0000 1763.8000 1761.7000 1759.6000 1757.5000 1755.3000 1753.2000 1753.2000 1755.3000 1757.5000 1759.6000 1761.7000 1763.8000 1766.0000 1768.1000 1770.2000 1772.3000 1774.4000 1776.6000 1778.7000 1780.8000 1782.9000 1785.1000 1787.2000 1789.3000 1791.4000 1793.5000 1795.7000 1797.8000 1799.9000 1802.0000 1804.2000 1806.3000 1808.4000 1810.5000 1812.6000 1814.8000 1816.9000 1819.0000 1821.1000 1823.3000 1825.4000 1827.5000 1829.6000 1831.7000 1833.9000 1836.0000 1838.1000 1840.2000 1842.4000 1844.5000 1846.6000 1848.7000 1850.8000 1853.0000 1855.1000 1857.2000 1859.3000 1861.5000 1863.6000 1865.7000 1867.8000 1869.9000 1872.1000 1874.2000 1876.3000 1878.4000 1880.6000 1882.7000 1884.8000 1886.9000 1889.0000 1891.2000 1893.3000 1895.4000 1897.5000 1899.7000 1901.8000 1903.9000 1906.0000 1908.1000 1910.3000 1912.4000 1914.5000 1916.6000 1918.8000 1920.9000 1923.0000 1925.1000 1927.2000 1929.4000 1931.5000 1933.6000 1935.7000 1937.9000 1940.0000 1942.1000 1944.2000 1946.3000 1948.5000 1950.6000 1952.7000 1954.8000 1957.0000 1959.1000 1961.2000 1963.3000 1965.4000 1967.6000 1969.7000 1971.8000 1973.9000 1976.1000 1978.2000 1980.3000 1982.4000 1984.5000 1986.7000 1988.8000 1990.9000 1993.0000 1995.2000 1997.3000 1999.4000 2001.5000 2003.6000 2005.8000 2007.9000 2010.0000 2012.1000 2014.3000 2016.4000 2018.5000 2020.6000 2022.7000 2024.9000 2027.0000 2029.1000 2031.2000 2033.4000 2035.5000 2037.6000 2039.7000 2041.8000 2044.0000 2046.1000 2048.2000 2050.3000 2052.4000 2054.6000 2056.7000 2058.8000 2060.9000 2063.1000 2065.2000 2067.3000 2069.4000 2071.5000 2073.7000 2075.8000 2077.9000 2080.0000 2082.2000 2084.3000
2048.4000 2046.3000 2044.2000 2042.1000 2039.9000 2037.8000 2035.7000 2033.6000 2031.4000 2029.3000 2027.2000 2025.1000 2022.9000 2020.8000 2018.7000 2016.6000 2014.4000 2012.3000 2010.2000 2008.1000 2005.9000 2003.8000 2001.7000 1999.6000 1997.4000 1995.3000 1993.2000 1991.1000 1988.9000 1986.8000 1984.7000 1982.5000 1980.4000 1978.3000 1976.2000 1974.0000 1971.9000 1969.8000 1967.7000 1965.5000 1963.4000 1961.3000 1959.2000 1957.0000 1954.9000 1952.8000 1950.7000 1948.5000 1946.4000 1944.3000 1942.2000 1940.0000 1937.9000 1935.8000 1933.7000 1931.5000 1929.4000 1927.3000 1925.2000 1923.0000 1920.9000 1918.8000 1916.7000 1914.5000 1912.4000 1910.3000 1908.2000 1906.0000 1903.9000 1901.8000 1899.6000 1897.5000 1895.4000 1893.3000 1891.1000 1889.0000 1886.9000 1884.8000 1882.6000 1880.5000 1878.4000 1876.3000 1874.1000 1872.0000 1869.9000 1867.8000 1865.6000 1863.5000 1861.4000 1859.3000 1857.1000 1855.0000 1852.9000 1850.8000 1848.6000 1846.5000 1844.4000 1842.3000 1840.1000 1838.0000 1835.9000 1833.8000 1831.6000 1829.5000 1827.4000 1825.2000 1823.1000 1821.0000 1818.9000 1816.7000 1814.6000 1812.5000 1810.4000 1808.2000 1806.1000 1804.0000 1801.9000 1799.7000 1797.6000 1795.5000 1793.4000 1791.2000 1789.1000 1787.0000 1784.9000 1782.7000 1780.6000 1778.5000 1776.4000 1774.2000 1772.1000 1770.0000 1767.9000 1765.7000 1763.6000 1761.5000 1759.4000 1757.2000 1755.1000 1753.0000 1750.9000 1750.9000 1753.0000 1755.1000 1757.2000 1759.4000 1761.5000 1763.6000 1765.7000 1767.9000 1770.0000 1772.1000 1774.2000 1776.4000 1778.5000 1780.6000 1782.7000 1784.9000 1787.0000 1789.1000 1791.2000 1793.4000 1795.5000 1797.6000 1799.7000 1801.9000 1804.0000 1806.1000 1808.2000 1810.4000 1812.5000 1814.6000 1816.7000 1818.9000 1821.0000 1823.1000 1825.2000 1827.4000 1829.5000 1831.6000 1833.8000 1835.9000 1838.0000 1840.1000 1842.3000 1844.4000 1846.5000 1848.6000 1850.8000 1852.9000 1855.0000 1857.1000 1859.3000 1861.4000 1863.5000 1865.6000 1867.8000 1869.9000 1872.0000 1874.1000 1876.3000 1878.4000 1880.5000 1882.6000 1884.8000 1886.9000 1889.0000 1891.1000 1893.3000 1895.4000 1897.5000 1899.6000 1901.8000 1903.9000 1906.0000 1908.2000 1910.3000 1912.4000 1914.5000 1916.7000 1918.8000 1920.9000 1923.0000 1925.2000 1927.3000 1929.4000 1931.5000 1933.7000 1935.8000 1937.9000 1940.0000 1942.2000 1944.3000 1946.4000 1948.5000 1950.7000 1952.8000 1954.9000 1957.0000 1959.2000 1961.3000 1963.4000 1965.5000 1967.7000 1969.8000 1971.9000 1974.0000 1976.2000 1978.3000 1980.4000 1982.5000 1984.7000 1986.8000 1988.9000 1991.1000 1993.2000 1995.3000 1997.4000 1999.6000 2001.7000 2003.8000 2005.9000 2008.1000 2010.2000 2012.3000 2014.4000 2016.6000 2018.7000 2020.8000 2022.9000 2025.1000 2027.2000 2029.3000 2031.4000 2033.6000 2035.7000 2037.8000 2039.9000 2042.1000 2044.2000 2046.3000 2048.4000 2050.6000 2052.7000 2054.8000 2056.9000 2059.1000 2061.2000 2063.3000 2065.5000 2067.6000 2069.7000 2071.8000 2074.0000 2076.1000 2078.2000 2080.3000 2082.5000
2046.6000 2044.4000 2042.3000 2040.2000 2038.0000 2035.9000 2033.8000 2031.7000 2029.5000 2027.4000 2025.3000 2023.1000 2021.0000 2018.9000 2016.8000 2014.6000 2012.5000 2010.4000 2008.2000 2006.1000 2004.0000 2001.9000 1999.7000 1997.6000 1995.5000 1993.3000 1991.2000 1989.1000 1986.9000 1984.8000 1982.7000 1980.6000 1978.4000 1976.3000 1974.2000 1972.0000 1969.9000 1967.8000 1965.7000 1963.5000 1961.4000 1959.3000 1957.1000 1955.0000 1952.9000 1950.8000 1948.6000 1946.5000 1944.4000 1942.2000 1940.1000 1938.0000 1935.8000 1933.7000 1931.6000 1929.5000 1927.3000 1925.2000 1923.1000 1920.9000 1918.8000 1916.7000 1914.6000 1912.4000 1910.3000 1908.2000 1906.0000 1903.9000 1901.8000 1899.7000 1897.5000 1895.4000 1893.3000 1891.1000 1889.0000 1886.9000 1884.7000 1882.6000 1880.5000 1878.4000 1876.2000 1874.1000 1872.0000 1869.8000 1867.7000 1865.6000 1863.5000 1861.3000 1859.2000 1857.1000 1854.9000 1852.8000 1850.7000 1848.6000 1846.4000 1844.3000 1842.2000 1840.0000 1837.9000 1835.8000 1833.6000 1831.5000 1829.4000 1827.3000 1825.1000 1823.0000 1820.9000 1818.7000 1816.6000 1814.5000 1812.4000 1810.2000 1808.1000 1806.0000 1803.8000 1801.7000 1799.6000 1797.5000 1795.3000 1793.2000 1791.1000 1788.9000 1786.8000 1784.7000 1782.5000 1780.4000 1778.3000 1776.2000 1774.0000 1771.9000 1769.8000 1767.6000 1765.5000 1763.4000 1761.3000 1759.1000 1757.0000 1754.9000 1752.7000 1750.6000 1748.5000 1748.5000 1750.6000 1752.7000 1754.9000 1757.0000 1759.1000 1761.3000 1763.4000 1765.5000 1767.6000 1769.8000 1771.9000 1774.0000 1776.2000 1778.3000 1780.4000 1782.5000 1784.7000 1786.8000 1788.9000 1791.1000 1793.2000 1795.3000 1797.5000 1799.6000 1801.7000 1803.8000 1806.0000 1808.1000 1810.2000 1812.4000 1814.5000 1816.6000 1818.7000 1820.9000 1823.0000 1825.1000 1827.3000 1829.4000 1831.5000 1833.6000 1835.8000 1837.9000 1840.0000 1842.2000 1844.3000 1846.4000 1848.6000 1850.7000 1852.8000 1854.9000 1857.1000 1859.2000 1861.3000 1863.5000 1865.6000 1867.7000 1869.8000 1872.0000 1874.1000 1876.2000 1878.4000 1880.5000 1882.6000 1884.7000 1886.9000 1889.0000 1891.1000 1893.3000 1895.4000 1897.5000 1899.7000 1901.8000 1903.9000 1906.0000 1908.2000 1910.3000 1912.4000 1914.6000 1916.7000 1918.8000 1920.9000 1923.1000 1925.2000 1927.3000 1929.5000 1931.6000 1933.7000 1935.8000 1938.0000 1940.1000 1942.2000 1944.4000 1946.5000 1948.6000 1950.8000 1952.9000 1955.0000 1957.1000 1959.3000 1961.4000 1963.5000 1965.7000 1967.8000 1969.9000 1972.0000 1974.2000 1976.3000 1978.4000 1980.6000 1982.7000 1984.8000 1986.9000 1989.1000 1991.2000 1993.3000 1995.5000 1997.6000 1999.7000 2001.9000 2004.0000 2006.1000 2008.2000 2010.4000 2012.5000 2014.6000 2016.8000 2018.9000 2021.0000 2023.1000 2025.3000 2027.4000 2029.5000 2031.7000 2033.8000 2035.9000 2038.0000 2040.2000 2042.3000 2044.4000 2046.6000 2048.7000 2050.8000 2053.0000 2055.1000 2057.2000 2059.3000 2061.5000 2063.6000 2065.7000 2067.9000 2070.0000 2072.1000 2074.2000 2076.4000 2078.5000 2080.6000
2044.7000 2042.5000 2040.4000 2038.3000 2036.2000 2034.0000 2031.9000 2029.8000 2027.6000 2025.5000 2023.4000 2021.2000 2019.1000 2017.0000 2014.8000 2012.7000 2010.6000 2008.4000 2006.3000 2004.2000 2002.0000 1999.9000 1997.8000 1995.6000 1993.5000 1991.4000 1989.2000 1987.1000 1985.0000 1982.8000 1980.7000 1978.6000 1976.4000 1974.3000 1972.2000 1970.0000 1967.9000 1965.8000 1963.6000 1961.5000 1959.4000 1957.2000 1955.1000 1953.0000 1950.8000 1948.7000 1946.6000 1944.4000 1942.3000 1940.2000 1938.0000 1935.9000 1933.8000 1931.7000 1929.5000 1927.4000 1925.3000 1923.1000 1921.0000 1918.9000 1916.7000 1914.6000 1912.5000 1910.3000 1908.2000 1906.1000 1903.9000 1901.8000 1899.7000 1897.5000 1895.4000 1893.3000 1891.1000 1889.0000 1886.9000 1884.7000 1882.6000 1880.5000 1878.3000 1876.2000 1874.1000 1871.9000 1869.8000 1867.7000 1865.5000 1863.4000 1861.3000 1859.1000 1857.0000 1854.9000 1852.7000 1850.6000 1848.5000 1846.3000 1844.2000 1842.1000 1839.9000 1837.8000 1835.7000 1833.5000 1831.4000 1829.3000 1827.2000 1825.0000 1822.9000 1820.8000 1818.6000 1816.5000 1814.4000 1812.2000 1810.1000 1808.0000 1805.8000 1803.7000 1801.6000 1799.4000 1797.3000 1795.2000 1793.0000 1790.9000 1788.8000 1786.6000 1784.5000 1782.4000 1780.2000 1778.1000 1776.0000 1773.8000 1771.7000 1769.6000 1767.4000 1765.3000 1763.2000 1761.0000 1758.9000 1756.8000 1754.6000 1752.5000 1750.4000 1748.2000 1746.1000 1746.1000 1748.2000 1750.4000 1752.5000 1754.6000 1756.8000 1758.9000 1761.0000 1763.2000 1765.3000 1767.4000 1769.6000 1771.7000 1773.8000 1776.0000 1778.1000 1780.2000 1782.4000 1784.5000 1786.6000 1788.8000 1790.9000 1793.0000 1795.2000 1797.3000 1799.4000 1801.6000 1803.7000 1805.8000 1808.0000 1810.1000 1812.2000 1814.4000 1816.5000 1818.6000 1820.8000 1822.9000 1825.0000 1827.2000 1829.3000 1831.4000 1833.5000 1835.7000 1837.8000 1839.9000 1842.1000 1844.2000 1846.3000 1848.5000 1850.6000 1852.7000 1854.9000 1857.0000 1859.1000 1861.3000 1863.4000 1865.5000 1867.7000 1869.8000 1871.9000 1874.1000 1876.2000 1878.3000 1880.5000 1882.6000 1884.7000 1886.9000 1889.0000 1891.1000 1893.3000 1895.4000 1897.5000 1899.7000 1901.8000 1903.9000 1906.1000 1908.2000 1910.3000 1912.5000 1914.6000 1916.7000 1918.9000 1921.0000 1923.1000 1925.3000 1927.4000 1929.5000 1931.7000 1933.8000 1935.9000 1938.0000 1940.2000 1942.3000 1944.4000 1946.6000 1948.7000 1950.8000 1953.0000 1955.1000 1957.2000 1959.4000 1961.5000 1963.6000 1965.8000 1967.9000 1970.0000 1972.2000 1974.3000 1976.4000 1978.6000 1980.7000 1982.8000 1985.0000 1987.1000 1989.2000 1991.4000 1993.5000 1995.6000 1997.8000 1999.9000 2002.0000 2004.2000 2006.3000 2008.4000 2010.6000 2012.7000 2014.8000 2017.0000 2019.1000 2021.2000 2023.4000 2025.5000 2027.6000 2029.8000 2031.9000 2034.0000 2036.2000 2038.3000 2040.4000 2042.5000 2044.7000 2046.8000 2048.9000 2051.1000 2053.2000 2055.3000 2057.5000 2059.6000 2061.7000 2063.9000 2066.0000 2068.1000 2070.3000 2072.4000 2074.5000 2076.7000 2078.8000
2042.8000 2040.7000 2038.5000 2036.4000 2034.3000 2032.1000 2030.0000 2027.8000 2025.7000 2023.6000 2021.4000 2019.3000 2017.2000 2015.0000 2012.9000 2010.8000 2008.6000 2006.5000 2004.3000 2002.2000 2000.1000 1997.9000 1995.8000 1993.7000 1991.5000 1989.4000 1987.3000 1985.1000 1983.0000 1980.9000 1978.7000 1976.6000 1974.4000 1972.3000 1970.2000 1968.0000 1965.9000 1963.8000 1961.6000 1959.5000 1957.4000 1955.2000 1953.1000 1950.9000 1948.8000 1946.7000 1944.5000 1942.4000 1940.3000 1938.1000 1936.0000 1933.9000 1931.7000 1929.6000 1927.4000 1925.3000 1923.2000 1921.0000 1918.9000 1916.8000 1914.6000 1912.5000 1910.4000 1908.2000 1906.1000 1904.0000 1901.8000 1899.7000 1897.5000 1895.4000 1893.3000 1891.1000 1889.0000 1886.9000 1884.7000 1882.6000 1880.5000 1878.3000 1876.2000 1874.0000 1871.9000 1869.8000 1867.6000 1865.5000 1863.4000 1861.2000 1859.1000 1857.0000 1854.8000 1852.7000 1850.5000 1848.4000 1846.3000 1844.1000 1842.0000 1839.9000 1837.7000 1835.6000 1833.5000 1831.3000 1829.2000 1827.0000 1824.9000 1822.8000 1820.6000 1818.5000 1816.4000 1814.2000 1812.1000 1810.0000 1807.8000 1805.7000 1803.6000 1801.4000 1799.3000 1797.1000 1795.0000 1792.9000 1790.7000 1788.6000 1786.5000 1784.3000 1782.2000 1780.1000 1777.9000 1775.8000 1773.6000 1771.5000 1769.4000 1767.2000 1765.1000 1763.0000 1760.8000 1758.7000 1756.6000 1754.4000 1752.3000 1750.1000 1748.0000 1745.9000 1743.7000 1743.7000 1745.9000 1748.0000 1750.1000 1752.3000 1754.4000 1756.6000 1758.7000 1760.8000 1763.0000 1765.1000 1767.2000 1769.4000 1771.5000 1773.6000 1775.8000 1777.9000 1780.1000 1782.2000 1784.3000 1786.5000 1788.6000 1790.7000 1792.9000 1795.0000 1797.1000 1799.3000 1801.4000 1803.6000 1805.7000 1807.8000 1810.0000 1812.1000 1814.2000 1816.4000 1818.5000 1820.6000 1822.8000 1824.9000 1827.0000 1829.2000 1831.3000 1833.5000 1835.6000 1837.7000 1839.9000 1842.0000 1844.1000 1846.3000 1848.4000 1850.5000 1852.7000 1854.8000 1857.0000 1859.1000 1861.2000 1863.4000 1865.5000 1867.6000 1869.8000 1871.9000 1874.0000 1876.2000 1878.3000 1880.5000 1882.6000 1884.7000 1886.9000 1889.0000 1891.1000 1893.3000 1895.4000 1897.5000 1899.7000 1901.8000 1904.0000 1906.1000 1908.2000 1910.4000 1912.5000 1914.6000 1916.8000 1918.9000 1921.0000 1923.2000 1925.3000 1927.4000 1929.6000 1931.7000 1933.9000 1936.0000 1938.1000 1940.3000 1942.4000 1944.5000 1946.7000 1948.8000 1950.9000 1953.1000 1955.2000 1957.4000 1959.5000 1961.6000 1963.8000 1965.9000 1968.0000 1970.2000 1972.3000 1974.4000 1976.6000 1978.7000 1980.9000 1983.0000 1985.1000 1987.3000 1989.4000 1991.5000 1993.7000 1995.8000 1997.9000 2000.1000 2002.2000 2004.3000 2006.5000 2008.6000 2010.8000 2012.9000 2015.0000 2017.2000 2019.3000 2021.4000 2023.6000 2025.7000 2027.8000 2030.0000 2032.1000 2034.3000 2036.4000 2038.5000 2040.7000 2042.8000 2044.9000 2047.1000 2049.2000 2051.3000 2053.5000 2055.6000 2057.8000 2059.9000 2062.0000 2064.2000 2066.3000 2068.4000 2070.6000 2072.7000 2074.8000 2077.0000
2040.9000 2038.8000 2036.6000 2034.5000 2032.4000 2030.2000 2028.1000 2025.9000 2023.8000 2021.7000 2019.5000 2017.4000 2015.2000 2013.1000 2011.0000 2008.8000 2006.7000 2004.5000 2002.4000 2000.3000 1998.1000 1996.0000 1993.8000 1991.7000 1989.6000 1987.4000 1985.3000 1983.1000 1981.0000 1978.9000 1976.7000 1974.6000 1972.4000 1970.3000 1968.2000 1966.0000 1963.9000 1961.8000 1959.6000 1957.5000 1955.3000 1953.2000 1951.1000 1948.9000 1946.8000 1944.6000 1942.5000 1940.4000 1938.2000 1936.1000 1933.9000 1931.8000 1929.7000 1927.5000 1925.4000 1923.2000 1921.1000 1919.0000 1916.8000 1914.7000 1912.5000 1910.4000 1908.3000 1906.1000 1904.0000 1901.8000 1899.7000 1897.6000 1895.4000 1893.3000 1891.1000 1889.0000 1886.9000 1884.7000 1882.6000 1880.4000 1878.3000 1876.2000 1874.0000 1871.9000 1869.7000 1867.6000 1865.5000 1863.3000 1861.2000 1859.0000 1856.9000 1854.8000 1852.6000 1850.5000 1848.4000 1846.2000 1844.1000 1841.9000 1839.8000 1837.7000 1835.5000 1833.4000 1831.2000 1829.1000 1827.0000 1824.8000 1822.7000 1820.5000 1818.4000 1816.3000 1814.1000 1812.0000 1809.8000 1807.7000 1805.6000 1803.4000 1801.3000 1799.1000 1797.0000 1794.9000 1792.7000 1790.6000 1788.4000 1786.3000 1784.2000 1782.0000 1779.9000 1777.7000 1775.6000 1773.5000 1771.3000 1769.2000 1767.0000 1764.9000 1762.8000 1760.6000 1758.5000 1756.3000 1754.2000 1752.1000 1749.9000 1747.8000 1745.6000 1743.5000 1741.4000 1741.4000 1743.5000 1745.6000 1747.8000 1749.9000 1752.1000 1754.2000 1756.3000 1758.5000 1760.6000 1762.8000 1764.9000 1767.0000 1769.2000 1771.3000 1773.5000 1775.6000 1777.7000 1779.9000 1782.0000 1784.2000 1786.3000 1788.4000 1790.6000 1792.7000 1794.9000 1797.0000 1799.1000 1801.3000 1803.4000 1805.6000 1807.7000 1809.8000 1812.0000 1814.1000 1816.3000 1818.4000 1820.5000 1822.7000 1824.8000 1827.0000 1829.1000 1831.2000 1833.4000 1835.5000 1837.7000 1839.8000 1841.9000 1844.1000 1846.2000 1848.4000 1850.5000 1852.6000 1854.8000 1856.9000 1859.0000 1861.2000 1863.3000 1865.5000 1867.6000 1869.7000 1871.9000 1874.0000 1876.2000 1878.3000 1880.4000 1882.6000 1884.7000 1886.9000 1889.0000 1891.1000 1893.3000 1895.4000 1897.6000 1899.7000 1901.8000 1904.0000 1906.1000 1908.3000 1910.4000 1912.5000 1914.7000 1916.8000 1919.0000 1921.1000 1923.2000 1925.4000 1927.5000 1929.7000 1931.8000 1933.9000 1936.1000 1938.2000 1940.4000 1942.5000 1944.6000 1946.8000 1948.9000 1951.1000 1953.2000 1955.3000 1957.5000 1959.6000 1961.8000 1963.9000 1966.0000 1968.2000 1970.3000 1972.4000 1974.6000 1976.7000 1978.9000 1981.0000 1983.1000 1985.3000 1987.4000 1989.6000 1991.7000 1993.8000 1996.0000 1998.1000 2000.3000 2002.4000 2004.5000 2006.7000 2008.8000 2011.0000 2013.1000 2015.2000 2017.4000 2019.5000 2021.7000 2023.8000 2025.9000 2028.1000 2030.2000 2032.4000 2034.5000 2036.6000 2038.8000 2040.9000 2043.1000 2045.2000 2047.3000 2049.5000 2051.6000 2053.8000 2055.9000 2058.0000 2060.2000 2062.3000 2064.5000 2066.6000 2068.7000 2070.9000 2073.0000 2075.2000
2039.0000 2036.9000 2034.7000 2032.6000 2030.5000 2028.3000 2026.2000 2024.0000 2021.9000 2019.7000 2017.6000 2015.5000 2013.3000 2011.2000 2009.0000 2006.9000 2004.7000 2002.6000 2000.5000 1998.3000 1996.2000 1994.0000 1991.9000 1989.7000 1987.6000 1985.5000 1983.3000 1981.2000 1979.0000 1976.9000 1974.7000 1972.6000 1970.5000 1968.3000 1966.2000 1964.0000 1961.9000 1959.7000 1957.6000 1955.5000 1953.3000 1951.2000 1949.0000 1946.9000 1944.7000 1942.6000 1940.5000 1938.3000 1936.2000 1934.0000 1931.9000 1929.7000 1927.6000 1925.4000 1923.3000 1921.2000 1919.0000 1916.9000 1914.7000 1912.6000 1910.4000 1908.3000 1906.2000 1904.0000 1901.9000 1899.7000 1897.6000 1895.4000 1893.3000 1891.2000 1889.0000 1886.9000 1884.7000 1882.6000 1880.4000 1878.3000 1876.2000 1874.0000 1871.9000 1869.7000 1867.6000 1865.4000 1863.3000 1861.2000 1859.0000 1856.9000 1854.7000 1852.6000 1850.4000 1848.3000 1846.2000 1844.0000 1841.9000 1839.7000 1837.6000 1835.4000 1833.3000 1831.2000 1829.0000 1826.9000 1824.7000 1822.6000 1820.4000 1818.3000 1816.2000 1814.0000 1811.9000 1809.7000 1807.6000 1805.4000 1803.3000 1801.1000 1799.0000 1796.9000 1794.7000 1792.6000 1790.4000 1788.3000 1786.1000 1784.0000 1781.9000 1779.7000 1777.6000 1775.4000 1773.3000 1771.1000 1769.0000 1766.9000 1764.7000 1762.6000 1760.4000 1758.3000 1756.1000 1754.0000 1751.9000 1749.7000 1747.6000 1745.4000 1743.3000 1741.1000 1739.0000 1739.0000 1741.1000 1743.3000 1745.4000 1747.6000 1749.7000 1751.9000 1754.0000 1756.1000 1758.3000 1760.4000 1762.6000 1764.7000 1766.9000 1769.0000 1771.1000 1773.3000 1775.4000 1777.6000 1779.7000 1781.9000 1784.0000 1786.1000 1788.3000 1790.4000 1792.6000 1794.7000 1796.9000 1799.0000 1801.1000 1803.3000 1805.4000 1807.6000 1809.7000 1811.9000 1814.0000 1816.2000 1818.3000 1820.4000 1822.6000 1824.7000 1826.9000 1829.0000 1831.2000 1833.3000 1835.4000 1837.6000 1839.7000 1841.9000 1844.0000 1846.2000 1848.3000 1850.4000 1852.6000 1854.7000 1856.9000 1859.0000 1861.2000 1863.3000 1865.4000 1867.6000 1869.7000 1871.9000 1874.0000 1876.2000 1878.3000 1880.4000 1882.6000 1884.7000 1886.9000 1889.0000 1891.2000 1893.3000 1895.4000 1897.6000 1899.7000 1901.9000 1904.0000 1906.2000 1908.3000 1910.4000 1912.6000 1914.7000 1916.9000 1919.0000 1921.2000 1923.3000 1925.4000 1927.6000 1929.7000 1931.9000 1934.0000 1936.2000 1938.3000 1940.5000 1942.6000 1944.7000 1946.9000 1949.0000 1951.2000 1953.3000 1955.5000 1957.6000 1959.7000 1961.9000 1964.0000 1966.2000 1968.3000 1970.5000 1972.6000 1974.7000 1976.9000 1979.0000 1981.2000 1983.3000 1985.5000 1987.6000 1989.7000 1991.9000 1994.0000 1996.2000 1998.3000 2000.5000 2002.6000 2004.7000 2006.9000 2009.0000 2011.2000 2013.3000 2015.5000 2017.6000 2019.7000 2021.9000 2024.0000 2026.2000 2028.3000 2030.5000 2032.6000 2034.7000 2036.9000 2039.0000 2041.2000 2043.3000 2045.5000 2047.6000 2049.8000 2051.9000 2054.0000 2056.2000 2058.3000 2060.5000 2062.6000 2064.8000 2066.9000 2069.0000 2071.2000 2073.3000
2037.2000 2035.0000 2032.9000 2030.7000 2028.6000 2026.4000 2024.3000 2022.1000 2020.0000 2017.8000 2015.7000 2013.5000 2011.4000 2009.2000 2007.1000 2005.0000 2002.8000 2000.7000 1998.5000 1996.4000 1994.2000 1992.1000 1989.9000 1987.8000 1985.6000 1983.5000 1981.3000 1979.2000 1977.0000 1974.9000 1972.8000 1970.6000 1968.5000 1966.3000 1964.2000 1962.0000 1959.9000 1957.7000 1955.6000 1953.4000 1951.3000 1949.1000 1947.0000 1944.8000 1942.7000 1940.6000 1938.4000 1936.3000 1934.1000 1932.0000 1929.8000 1927.7000 1925.5000 1923.4000 1921.2000 1919.1000 1916.9000 1914.8000 1912.6000 1910.5000 1908.4000 1906.2000 1904.1000 1901.9000 1899.8000 1897.6000 1895.5000 1893.3000 1891.2000 1889.0000 1886.9000 1884.7000 1882.6000 1880.5000 1878.3000 1876.2000 1874.0000 1871.9000 1869.7000 1867.6000 1865.4000 1863.3000 1861.1000 1859.0000 1856.8000 1854.7000 1852.5000 1850.4000 1848.3000 1846.1000 1844.0000 1841.8000 1839.7000 1837.5000 1835.4000 1833.2000 1831.1000 1828.9000 1826.8000 1824.6000 1822.5000 1820.3000 1818.2000 1816.1000 1813.9000 1811.8000 1809.6000 1807.5000 1805.3000 1803.2000 1801.0000 1798.9000 1796.7000 1794.6000 1792.4000 1790.3000 1788.1000 1786.0000 1783.9000 1781.7000 1779.6000 1777.4000 1775.3000 1773.1000 1771.0000 1768.8000 1766.7000 1764.5000 1762.4000 1760.2000 1758.1000 1755.9000 1753.8000 1751.7000 1749.5000 1747.4000 1745.2000 1743.1000 1740.9000 1738.8000 1736.6000 1736.6000 1738.8000 1740.9000 1743.1000 1745.2000 1747.4000 1749.5000 1751.7000 1753.8000 1755.9000 1758.1000 1760.2000 1762.4000 1764.5000 1766.7000 1768.8000 1771.0000 1773.1000 1775.3000 1777.4000 1779.6000 1781.7000 1783.9000 1786.0000 1788.1000 1790.3000 1792.4000 1794.6000 1796.7000 1798.9000 1801.0000 1803.2000 1805.3000 1807.5000 1809.6000 1811.8000 1813.9000 1816.1000 1818.2000 1820.3000 1822.5000 1824.6000 1826.8000 1828.9000 1831.1000 1833.2000 1835.4000 1837.5000 1839.7000 1841.8000 1844.0000 1846.1000 1848.3000 1850.4000 1852.5000 1854.7000 1856.8000 1859.0000 1861.1000 1863.3000 1865.4000 1867.6000 1869.7000 1871.9000 1874.0000 1876.2000 1878.3000 1880.5000 1882.6000 1884.7000 1886.9000 1889.0000 1891.2000 1893.3000 1895.5000 1897.6000 1899.8000 1901.9000 1904.1000 1906.2000 1908.4000 1910.5000 1912.6000 1914.8000 1916.9000 1919.1000 1921.2000 1923.4000 1925.5000 1927.7000 1929.8000 1932.0000 1934.1000 1936.3000 1938.4000 1940.6000 1942.7000 1944.8000 1947.0000 1949.1000 1951.3000 1953.4000 1955.6000 1957.7000 1959.9000 1962.0000 1964.2000 1966.3000 1968.5000 1970.6000 1972.8000 1974.9000 1977.0000 1979.2000 1981.3000 1983.5000 1985.6000 1987.8000 1989.9000 1992.1000 1994.2000 1996.4000 1998.5000 2000.7000 2002.8000 2005.0000 2007.1000 2009.2000 2011.4000 2013.5000 2015.7000 2017.8000 2020.0000 2022.1000 2024.3000 2026.4000 2028.6000 2030.7000 2032.9000 2035.0000 2037.2000 2039.3000 2041.4000 2043.6000 2045.7000 2047.9000 2050.0000 2052.2000 2054.3000 2056.5000 2058.6000 2060.8000 2062.9000 2065.1000 2067.2000 2069.4000 2071.5000
2035.3000 2033.1000 2031.0000 2028.8000 2026.7000 2024.5000 2022.4000 2020.2000 2018.1000 2015.9000 2013.8000 2011.6000 2009.5000 2007.3000 2005.2000 2003.0000 2000.9000 1998.7000 1996.6000 1994.4000 1992.3000 1990.1000 1988.0000 1985.8000 1983.7000 1981.5000 1979.4000 1977.2000 1975.1000 1972.9000 1970.8000 1968.6000 1966.5000 1964.3000 1962.2000 1960.0000 1957.9000 1955.7000 1953.6000 1951.4000 1949.3000 1947.1000 1945.0000 1942.8000 1940.7000 1938.5000 1936.4000 1934.2000 1932.1000 1929.9000 1927.8000 1925.6000 1923.5000 1921.3000 1919.2000 1917.0000 1914.9000 1912.7000 1910.6000 1908.4000 1906.3000 1904.1000 1902.0000 1899.8000 1897.7000 1895.5000 1893.4000 1891.2000 1889.1000 1886.9000 1884.8000 1882.6000 1880.5000 1878.3000 1876.2000 1874.0000 1871.9000 1869.7000 1867.6000 1865.4000 1863.3000 1861.1000 1859.0000 1856.8000 1854.7000 1852.5000 1850.4000 1848.2000 1846.1000 1843.9000 1841.8000 1839.6000 1837.5000 1835.3000 1833.2000 1831.0000 1828.9000 1826.7000 1824.6000 1822.4000 1820.3000 1818.1000 1816.0000 1813.8000 1811.7000 1809.5000 1807.4000 1805.2000 1803.1000 1800.9000 1798.8000 1796.6000 1794.5000 1792.3000 1790.2000 1788.0000 1785.9000 1783.7000 1781.6000 1779.4000 1777.3000 1775.1000 1773.0000 1770.8000 1768.7000 1766.5000 1764.4000 1762.2000 1760.1000 1757.9000 1755.8000 1753.6000 1751.5000 1749.3000 1747.2000 1745.0000 1742.9000 1740.7000 1738.6000 1736.4000 1734.3000 1734.3000 1736.4000 1738.6000 1740.7000 1742.9000 1745.0000 1747.2000 1749.3000 1751.5000 1753.6000 1755.8000 1757.9000 1760.1000 1762.2000 1764.4000 1766.5000 1768.7000 1770.8000 1773.0000 1775.1000 1777.3000 1779.4000 1781.6000 1783.7000 1785.9000 1788.0000 1790.2000 1792.3000 1794.5000 1796.6000 1798.8000 1800.9000 1803.1000 1805.2000 1807.4000 1809.5000 1811.7000 1813.8000 1816.0000 1818.1000 1820.3000 1822.4000 1824.6000 1826.7000 1828.9000 1831.0000 1833.2000 1835.3000 1837.5000 1839.6000 1841.8000 1843.9000 1846.1000 1848.2000 1850.4000 1852.5000 1854.7000 1856.8000 1859.0000 1861.1000 1863.3000 1865.4000 1867.6000 1869.7000 1871.9000 1874.0000 1876.2000 1878.3000 1880.5000 1882.6000 1884.8000 1886.9000 1889.1000 1891.2000 1893.4000 1895.5000 1897.7000 1899.8000 1902.0000 1904.1000 1906.3000 1908.4000 1910.6000 1912.7000 1914.9000 1917.0000 1919.2000 1921.3000 1923.5000 1925.6000 1927.8000 1929.9000 1932.1000 1934.2000 1936.4000 1938.5000 1940.7000 1942.8000 1945.0000 1947.1000 1949.3000 1951.4000 1953.6000 1955.7000 1957.9000 1960.0000 1962.2000 1964.3000 1966.5000 1968.6000 1970.8000 1972.9000 1975.1000 1977.2000 1979.4000 1981.5000 1983.7000 1985.8000 1988.0000 1990.1000 1992.3000 1994.4000 1996.6000 1998.7000 2000.9000 2003.0000 2005.2000 2007.3000 2009.5000 2011.6000 2013.8000 2015.9000 2018.1000 2020.2000 2022.4000 2024.5000 2026.7000 2028.8000 2031.0000 2033.1000 2035.3000 2037.4000 2039.6000 2041.7000 2043.9000 2046.0000 2048.2000 2050.3000 2052.5000 2054.6000 2056.8000 2058.9000 2061.1000 2063.2000 2065.4000 2067.5000 2069.7000
2033.4000 2031.2000 2029.1000 2026.9000 2024.8000 2022.6000 2020.5000 2018.3000 2016.2000 2014.0000 2011.9000 2009.7000 2007.5000 2005.4000 2003.2000 2001.1000 1998.9000 1996.8000 1994.6000 1992.5000 1990.3000 1988.2000 1986.0000 1983.9000 1981.7000 1979.5000 1977.4000 1975.2000 1973.1000 1970.9000 1968.8000 1966.6000 1964.5000 1962.3000 1960.2000 1958.0000 1955.9000 1953.7000 1951.6000 1949.4000 1947.2000 1945.1000 1942.9000 1940.8000 1938.6000 1936.5000 1934.3000 1932.2000 1930.0000 1927.9000 1925.7000 1923.6000 1921.4000 1919.2000 1917.1000 1914.9000 1912.8000 1910.6000 1908.5000 1906.3000 1904.2000 1902.0000 1899.9000 1897.7000 1895.6000 1893.4000 1891.3000 1889.1000 1886.9000 1884.8000 1882.6000 1880.5000 1878.3000 1876.2000 1874.0000 1871.9000 1869.7000 1867.6000 1865.4000 1863.3000 1861.1000 1858.9000 1856.8000 1854.6000 1852.5000 1850.3000 1848.2000 1846.0000 1843.9000 1841.7000 1839.6000 1837.4000 1835.3000 1833.1000 1831.0000 1828.8000 1826.6000 1824.5000 1822.3000 1820.2000 1818.0000 1815.9000 1813.7000 1811.6000 1809.4000 1807.3000 1805.1000 1803.0000 1800.8000 1798.6000 1796.5000 1794.3000 1792.2000 1790.0000 1787.9000 1785.7000 1783.6000 1781.4000 1779.3000 1777.1000 1775.0000 1772.8000 1770.7000 1768.5000 1766.3000 1764.2000 1762.0000 1759.9000 1757.7000 1755.6000 1753.4000 1751.3000 1749.1000 1747.0000 1744.8000 1742.7000 1740.5000 1738.3000 1736.2000 1734.0000 1731.9000 1731.9000 1734.0000 1736.2000 1738.3000 1740.5000 1742.7000 1744.8000 1747.0000 1749.1000 1751.3000 1753.4000 1755.6000 1757.7000 1759.9000 1762.0000 1764.2000 1766.3000 1768.5000 1770.7000 1772.8000 1775.0000 1777.1000 1779.3000 1781.4000 1783.6000 1785.7000 1787.9000 1790.0000 1792.2000 1794.3000 1796.5000 1798.6000 1800.8000 1803.0000 1805.1000 1807.3000 1809.4000 1811.6000 1813.7000 1815.9000 1818.0000 1820.2000 1822.3000 1824.5000 1826.6000 1828.8000 1831.0000 1833.1000 1835.3000 1837.4000 1839.6000 1841.7000 1843.9000 1846.0000 1848.2000 1850.3000 1852.5000 1854.6000 1856.8000 1858.9000 1861.1000 1863.3000 1865.4000 1867.6000 1869.7000 1871.9000 1874.0000 1876.2000 1878.3000 1880.5000 1882.6000 1884.8000 1886.9000 1889.1000 1891.3000 1893.4000 1895.6000 1897.7000 1899.9000 1902.0000 1904.2000 1906.3000 1908.5000 1910.6000 1912.8000 1914.9000 1917.1000 1919.2000 1921.4000 1923.6000 1925.7000 1927.9000 1930.0000 1932.2000 1934.3000 1936.5000 1938.6000 1940.8000 1942.9000 1945.1000 1947.2000 1949.4000 1951.6000 1953.7000 1955.9000 1958.0000 1960.2000 1962.3000 1964.5000 1966.6000 1968.8000 1970.9000 1973.1000 1975.2000 1977.4000 1979.5000 1981.7000 1983.9000 1986.0000 1988.2000 1990.3000 1992.5000 1994.6000 1996.8000 1998.9000 2001.1000 2003.2000 2005.4000 2007.5000 2009.7000 2011.9000 2014.0000 2016.2000 2018.3000 2020.5000 2022.6000 2024.8000 2026.9000 2029.1000 2031.2000 2033.4000 2035.5000 2037.7000 2039.8000 2042.0000 2044.2000 2046.3000 2048.5000 2050.6000 2052.8000 2054.9000 2057.1000 2059.2000 2061.4000 2063.5000 2065.7000 2067.8000
2031.5000 2029.3000 2027.2000 2025.0000 2022.9000 2020.7000 2018.6000 2016.4000 2014.3000 2012.1000 2009.9000 2007.8000 2005.6000 2003.5000 2001.3000 1999.2000 1997.0000 1994.8000 1992.7000 1990.5000 1988.4000 1986.2000 1984.1000 1981.9000 1979.7000 1977.6000 1975.4000 1973.3000 1971.1000 1969.0000 1966.8000 1964.6000 1962.5000 1960.3000 1958.2000 1956.0000 1953.9000 1951.7000 1949.5000 1947.4000 1945.2000 1943.1000 1940.9000 1938.8000 1936.6000 1934.4000 1932.3000 1930.1000 1928.0000 1925.8000 1923.7000 1921.5000 1919.3000 1917.2000 1915.0000 1912.9000 1910.7000 1908.6000 1906.4000 1904.2000 1902.1000 1899.9000 1897.8000 1895.6000 1893.5000 1891.3000 1889.1000 1887.0000 1884.8000 1882.7000 1880.5000 1878.4000 1876.2000 1874.0000 1871.9000 1869.7000 1867.6000 1865.4000 1863.3000 1861.1000 1858.9000 1856.8000 1854.6000 1852.5000 1850.3000 1848.2000 1846.0000 1843.8000 1841.7000 1839.5000 1837.4000 1835.2000 1833.1000 1830.9000 1828.7000 1826.6000 1824.4000 1822.3000 1820.1000 1818.0000 1815.8000 1813.6000 1811.5000 1809.3000 1807.2000 1805.0000 1802.9000 1800.7000 1798.5000 1796.4000 1794.2000 1792.1000 1789.9000 1787.8000 1785.6000 1783.4000 1781.3000 1779.1000 1777.0000 1774.8000 1772.7000 1770.5000 1768.3000 1766.2000 1764.0000 1761.9000 1759.7000 1757.6000 1755.4000 1753.2000 1751.1000 1748.9000 1746.8000 1744.6000 1742.5000 1740.3000 1738.1000 1736.0000 1733.8000 1731.7000 1729.5000 1729.5000 1731.7000 1733.8000 1736.0000 1738.1000 1740.3000 1742.5000 1744.6000 1746.8000 1748.9000 1751.1000 1753.2000 1755.4000 1757.6000 1759.7000 1761.9000 1764.0000 1766.2000 1768.3000 1770.5000 1772.7000 1774.8000 1777.0000 1779.1000 1781.3000 1783.4000 1785.6000 1787.8000 1789.9000 1792.1000 1794.2000 1796.4000 1798.5000 1800.7000 1802.9000 1805.0000 1807.2000 1809.3000 1811.5000 1813.6000 1815.8000 1818.0000 1820.1000 1822.3000 1824.4000 1826.6000 1828.7000 1830.9000 1833.1000 1835.2000 1837.4000 1839.5000 1841.7000 1843.8000 1846.0000 1848.2000 1850.3000 1852.5000 1854.6000 1856.8000 1858.9000 1861.1000 1863.3000 1865.4000 1867.6000 1869.7000 1871.9000 1874.0000 1876.2000 1878.4000 1880.5000 1882.7000 1884.8000 1887.0000 1889.1000 1891.3000 1893.5000 1895.6000 1897.8000 1899.9000 1902.1000 1904.2000 1906.4000 1908.6000 1910.7000 1912.9000 1915.0000 1917.2000 1919.3000 1921.5000 1923.7000 1925.8000 1928.0000 1930.1000 1932.3000 1934.4000 1936.6000 1938.8000 1940.9000 1943.1000 1945.2000 1947.4000 1949.5000 1951.7000 1953.9000 1956.0000 1958.2000 1960.3000 1962.5000 1964.6000 1966.8000 1969.0000 1971.1000 1973.3000 1975.4000 1977.6000 1979.7000 1981.9000 1984.1000 1986.2000 1988.4000 1990.5000 1992.7000 1994.8000 1997.0000 1999.2000 2001.3000 2003.5000 2005.6000 2007.8000 2009.9000 2012.1000 2014.3000 2016.4000 2018.6000 2020.7000 2022.9000 2025.0000 2027.2000 2029.3000 2031.5000 2033.7000 2035.8000 2038.0000 2040.1000 2042.3000 2044.4000 2046.6000 2048.8000 2050.9000 2053.1000 2055.2000 2057.4000 2059.5000 2061.7000 2063.9000 2066.0000
2029.6000 2027.5000 2025.3000 2023.1000 2021.0000 2018.8000 2016.7000 2014.5000 2012.3000 2010.2000 2008.0000 2005.9000 2003.7000 2001.5000 1999.4000 1997.2000 1995.1000 1992.9000 1990.7000 1988.6000 1986.4000 1984.3000 1982.1000 1979.9000 1977.8000 1975.6000 1973.5000 1971.3000 1969.1000 1967.0000 1964.8000 1962.6000 1960.5000 1958.3000 1956.2000 1954.0000 1951.8000 1949.7000 1947.5000 1945.4000 1943.2000 1941.0000 1938.9000 1936.7000 1934.6000 1932.4000 1930.2000 1928.1000 1925.9000 1923.8000 1921.6000 1919.4000 1917.3000 1915.1000 1913.0000 1910.8000 1908.6000 1906.5000 1904.3000 1902.2000 1900.0000 1897.8000 1895.7000 1893.5000 1891.3000 1889.2000 1887.0000 1884.9000 1882.7000 1880.5000 1878.4000 1876.2000 1874.1000 1871.9000 1869.7000 1867.6000 1865.4000 1863.3000 1861.1000 1858.9000 1856.8000 1854.6000 1852.5000 1850.3000 1848.1000 1846.0000 1843.8000 1841.7000 1839.5000 1837.3000 1835.2000 1833.0000 1830.9000 1828.7000 1826.5000 1824.4000 1822.2000 1820.0000 1817.9000 1815.7000 1813.6000 1811.4000 1809.2000 1807.1000 1804.9000 1802.8000 1800.6000 1798.4000 1796.3000 1794.1000 1792.0000 1789.8000 1787.6000 1785.5000 1783.3000 1781.2000 1779.0000 1776.8000 1774.7000 1772.5000 1770.4000 1768.2000 1766.0000 1763.9000 1761.7000 1759.6000 1757.4000 1755.2000 1753.1000 1750.9000 1748.8000 1746.6000 1744.4000 1742.3000 1740.1000 1737.9000 1735.8000 1733.6000 1731.5000 1729.3000 1727.1000 1727.1000 1729.3000 1731.5000 1733.6000 1735.8000 1737.9000 1740.1000 1742.3000 1744.4000 1746.6000 1748.8000 1750.9000 1753.1000 1755.2000 1757.4000 1759.6000 1761.7000 1763.9000 1766.0000 1768.2000 1770.4000 1772.5000 1774.7000 1776.8000 1779.0000 1781.2000 1783.3000 1785.5000 1787.6000 1789.8000 1792.0000 1794.1000 1796.3000 1798.4000 1800.6000 1802.8000 1804.9000 1807.1000 1809.2000 1811.4000 1813.6000 1815.7000 1817.9000 1820.0000 1822.2000 1824.4000 1826.5000 1828.7000 1830.9000 1833.0000 1835.2000 1837.3000 1839.5000 1841.7000 1843.8000 1846.0000 1848.1000 1850.3000 1852.5000 1854.6000 1856.8000 1858.9000 1861.1000 1863.3000 1865.4000 1867.6000 1869.7000 1871.9000 1874.1000 1876.2000 1878.4000 1880.5000 1882.7000 1884.9000 1887.0000 1889.2000 1891.3000 1893.5000 1895.7000 1897.8000 1900.0000 1902.2000 1904.3000 1906.5000 1908.6000 1910.8000 1913.0000 1915.1000 1917.3000 1919.4000 1921.6000 1923.8000 1925.9000 1928.1000 1930.2000 1932.4000 1934.6000 1936.7000 1938.9000 1941.0000 1943.2000 1945.4000 1947.5000 1949.7000 1951.8000 1954.0000 1956.2000 1958.3000 1960.5000 1962.6000 1964.8000 1967.0000 1969.1000 1971.3000 1973.5000 1975.6000 1977.8000 1979.9000 1982.1000 1984.3000 1986.4000 1988.6000 1990.7000 1992.9000 1995.1000 1997.2000 1999.4000 2001.5000 2003.7000 2005.9000 2008.0000 2010.2000 2012.3000 2014.5000 2016.7000 2018.8000 2021.0000 2023.1000 2025.3000 2027.5000 2029.6000 2031.8000 2033.9000 2036.1000 2038.3000 2040.4000 2042.6000 2044.7000 2046.9000 2049.1000 2051.2000 2053.4000 2055.6000 2057.7000 2059.9000 2062.0000 2064.2000
2027.7000 2025.6000 2023.4000 2021.3000 2019.1000 2016.9000 2014.8000 2012.6000 2010.4000 2008.3000 2006.1000 2003.9000 2001.8000 1999.6000 1997.4000 1995.3000 1993.1000 1991.0000 1988.8000 1986.6000 1984.5000 1982.3000 1980.1000 1978.0000 1975.8000 1973.6000 1971.5000 1969.3000 1967.1000 1965.0000 1962.8000 1960.7000 1958.5000 1956.3000 1954.2000 1952.0000 1949.8000 1947.7000 1945.5000 1943.3000 1941.2000 1939.0000 1936.9000 1934.7000 1932.5000 1930.4000 1928.2000 1926.0000 1923.9000 1921.7000 1919.5000 1917.4000 1915.2000 1913.0000 1910.9000 1908.7000 1906.6000 1904.4000 1902.2000 1900.1000 1897.9000 1895.7000 1893.6000 1891.4000 1889.2000 1887.1000 1884.9000 1882.8000 1880.6000 1878.4000 1876.3000 1874.1000 1871.9000 1869.8000 1867.6000 1865.4000 1863.3000 1861.1000 1858.9000 1856.8000 1854.6000 1852.5000 1850.3000 1848.1000 1846.0000 1843.8000 1841.6000 1839.5000 1837.3000 1835.1000 1833.0000 1830.8000 1828.6000 1826.5000 1824.3000 1822.2000 1820.0000 1817.8000 1815.7000 1813.5000 1811.3000 1809.2000 1807.0000 1804.8000 1802.7000 1800.5000 1798.4000 1796.2000 1794.0000 1791.9000 1789.7000 1787.5000 1785.4000 1783.2000 1781.0000 1778.9000 1776.7000 1774.5000 1772.4000 1770.2000 1768.1000 1765.9000 1763.7000 1761.6000 1759.4000 1757.2000 1755.1000 1752.9000 1750.7000 1748.6000 1746.4000 1744.3000 1742.1000 1739.9000 1737.8000 1735.6000 1733.4000 1731.3000 1729.1000 1726.9000 1724.8000 1724.8000 1726.9000 1729.1000 1731.3000 1733.4000 1735.6000 1737.8000 1739.9000 1742.1000 1744.3000 1746.4000 1748.6000 1750.7000 1752.9000 1755.1000 1757.2000 1759.4000 1761.6000 1763.7000 1765.9000 1768.1000 1770.2000 1772.4000 1774.5000 1776.7000 1778.9000 1781.0000 1783.2000 1785.4000 1787.5000 1789.7000 1791.9000 1794.0000 1796.2000 1798.4000 1800.5000 1802.7000 1804.8000 1807.0000 1809.2000 1811.3000 1813.5000 1815.7000 1817.8000 1820.0000 1822.2000 1824.3000 1826.5000 1828.6000 1830.8000 1833.0000 1835.1000 1837.3000 1839.5000 1841.6000 1843.8000 1846.0000 1848.1000 1850.3000 1852.5000 1854.6000 1856.8000 1858.9000 1861.1000 1863.3000 1865.4000 1867.6000 1869.8000 1871.9000 1874.1000 1876.3000 1878.4000 1880.6000 1882.8000 1884.9000 1887.1000 1889.2000 1891.4000 1893.6000 1895.7000 1897.9000 1900.1000 1902.2000 1904.4000 1906.6000 1908.7000 1910.9000 1913.0000 1915.2000 1917.4000 1919.5000 1921.7000 1923.9000 1926.0000 1928.2000 1930.4000 1932.5000 1934.7000 1936.9000 1939.0000 1941.2000 1943.3000 1945.5000 1947.7000 1949.8000 1952.0000 1954.2000 1956.3000 1958.5000 1960.7000 1962.8000 1965.0000 1967.1000 1969.3000 1971.5000 1973.6000 1975.8000 1978.0000 1980.1000 1982.3000 1984.5000 1986.6000 1988.8000 1991.0000 1993.1000 1995.3000 1997.4000 1999.6000 2001.8000 2003.9000 2006.1000 2008.3000 2010.4000 2012.6000 2014.8000 2016.9000 2019.1000 2021.3000 2023.4000 2025.6000 2027.7000 2029.9000 2032.1000 2034.2000 2036.4000 2038.6000 2040.7000 2042.9000 2045.1000 2047.2000 2049.4000 2051.5000 2053.7000 2055.9000 2058.0000 2060.2000 2062.4000
2025.9000 2023.7000 2021.5000 2019.4000 2017.2000 2015.0000 2012.9000 2010.7000 2008.5000 2006.4000 2004.2000 2002.0000 1999.9000 1997.7000 1995.5000 1993.3000 1991.2000 1989.0000 1986.8000 1984.7000 1982.5000 1980.3000 1978.2000 1976.0000 1973.8000 1971.7000 1969.5000 1967.3000 1965.2000 1963.0000 1960.8000 1958.7000 1956.5000 1954.3000 1952.2000 1950.0000 1947.8000 1945.7000 1943.5000 1941.3000 1939.2000 1937.0000 1934.8000 1932.7000 1930.5000 1928.3000 1926.2000 1924.0000 1921.8000 1919.7000 1917.5000 1915.3000 1913.1000 1911.0000 1908.8000 1906.6000 1904.5000 1902.3000 1900.1000 1898.0000 1895.8000 1893.6000 1891.5000 1889.3000 1887.1000 1885.0000 1882.8000 1880.6000 1878.5000 1876.3000 1874.1000 1872.0000 1869.8000 1867.6000 1865.5000 1863.3000 1861.1000 1859.0000 1856.8000 1854.6000 1852.5000 1850.3000 1848.1000 1846.0000 1843.8000 1841.6000 1839.5000 1837.3000 1835.1000 1832.9000 1830.8000 1828.6000 1826.4000 1824.3000 1822.1000 1819.9000 1817.8000 1815.6000 1813.4000 1811.3000 1809.1000 1806.9000 1804.8000 1802.6000 1800.4000 1798.3000 1796.1000 1793.9000 1791.8000 1789.6000 1787.4000 1785.3000 1783.1000 1780.9000 1778.8000 1776.6000 1774.4000 1772.3000 1770.1000 1767.9000 1765.8000 1763.6000 1761.4000 1759.3000 1757.1000 1754.9000 1752.7000 1750.6000 1748.4000 1746.2000 1744.1000 1741.9000 1739.7000 1737.6000 1735.4000 1733.2000 1731.1000 1728.9000 1726.7000 1724.6000 1722.4000 1722.4000 1724.6000 1726.7000 1728.9000 1731.1000 1733.2000 1735.4000 1737.6000 1739.7000 1741.9000 1744.1000 1746.2000 1748.4000 1750.6000 1752.7000 1754.9000 1757.1000 1759.3000 1761.4000 1763.6000 1765.8000 1767.9000 1770.1000 1772.3000 1774.4000 1776.6000 1778.8000 1780.9000 1783.1000 1785.3000 1787.4000 1789.6000 1791.8000 1793.9000 1796.1000 1798.3000 1800.4000 1802.6000 1804.8000 1806.9000 1809.1000 1811.3000 1813.4000 1815.6000 1817.8000 1819.9000 1822.1000 1824.3000 1826.4000 1828.6000 1830.8000 1832.9000 1835.1000 1837.3000 1839.5000 1841.6000 1843.8000 1846.0000 1848.1000 1850.3000 1852.5000 1854.6000 1856.8000 1859.0000 1861.1000 1863.3000 1865.5000 1867.6000 1869.8000 1872.0000 1874.1000 1876.3000 1878.5000 1880.6000 1882.8000 1885.0000 1887.1000 1889.3000 1891.5000 1893.6000 1895.8000 1898.0000 1900.1000 1902.3000 1904.5000 1906.6000 1908.8000 1911.0000 1913.1000 1915.3000 1917.5000 1919.7000 1921.8000 1924.0000 1926.2000 1928.3000 1930.5000 1932.7000 1934.8000 1937.0000 1939.2000 1941.3000 1943.5000 1945.7000 1947.8000 1950.0000 1952.2000 1954.3000 1956.5000 1958.7000 1960.8000 1963.0000 1965.2000 1967.3000 1969.5000 1971.7000 1973.8000 1976.0000 1978.2000 1980.3000 1982.5000 1984.7000 1986.8000 1989.0000 1991.2000 1993.3000 1995.5000 1997.7000 1999.9000 2002.0000 2004.2000 2006.4000 2008.5000 2010.7000 2012.9000 2015.0000 2017.2000 2019.4000 2021.5000 2023.7000 2025.9000 2028.0000 2030.2000 2032.4000 2034.5000 2036.7000 2038.9000 2041.0000 2043.2000 2045.4000 2047.5000 2049.7000 2051.9000 2054.0000 2056.2000 2058.4000 2060.5000
2024.0000 2021.8000 2019.6000 2017.5000 2015.3000 2013.1000 2011.0000 2008.8000 2006.6000 2004.4000 2002.3000 2000.1000 1997.9000 1995.8000 1993.6000 1991.4000 1989.2000 1987.1000 1984.9000 1982.7000 1980.6000 1978.4000 1976.2000 1974.0000 1971.9000 1969.7000 1967.5000 1965.4000 1963.2000 1961.0000 1958.8000 1956.7000 1954.5000 1952.3000 1950.2000 1948.0000 1945.8000 1943.7000 1941.5000 1939.3000 1937.1000 1935.0000 1932.8000 1930.6000 1928.5000 1926.3000 1924.1000 1921.9000 1919.8000 1917.6000 1915.4000 1913.3000 1911.1000 1908.9000 1906.7000 1904.6000 1902.4000 1900.2000 1898.1000 1895.9000 1893.7000 1891.5000 1889.4000 1887.2000 1885.0000 1882.9000 1880.7000 1878.5000 1876.3000 1874.2000 1872.0000 1869.8000 1867.7000 1865.5000 1863.3000 1861.2000 1859.0000 1856.8000 1854.6000 1852.5000 1850.3000 1848.1000 1846.0000 1843.8000 1841.6000 1839.4000 1837.3000 1835.1000 1832.9000 1830.8000 1828.6000 1826.4000 1824.2000 1822.1000 1819.9000 1817.7000 1815.6000 1813.4000 1811.2000 1809.0000 1806.9000 1804.7000 1802.5000 1800.4000 1798.2000 1796.0000 1793.8000 1791.7000 1789.5000 1787.3000 1785.2000 1783.0000 1780.8000 1778.7000 1776.5000 1774.3000 1772.1000 1770.0000 1767.8000 1765.6000 1763.5000 1761.3000 1759.1000 1756.9000 1754.8000 1752.6000 1750.4000 1748.3000 1746.1000 1743.9000 1741.7000 1739.6000 1737.4000 1735.2000 1733.1000 1730.9000 1728.7000 1726.5000 1724.4000 1722.2000 1720.0000 1720.0000 1722.2000 1724.4000 1726.5000 1728.7000 1730.9000 1733.1000 1735.2000 1737.4000 1739.6000 1741.7000 1743.9000 1746.1000 1748.3000 1750.4000 1752.6000 1754.8000 1756.9000 1759.1000 1761.3000 1763.5000 1765.6000 1767.8000 1770.0000 1772.1000 1774.3000 1776.5000 1778.7000 1780.8000 1783.0000 1785.2000 1787.3000 1789.5000 1791.7000 1793.8000 1796.0000 1798.2000 1800.4000 1802.5000 1804.7000 1806.9000 1809.0000 1811.2000 1813.4000 1815.6000 1817.7000 1819.9000 1822.1000 1824.2000 1826.4000 1828.6000 1830.8000 1832.9000 1835.1000 1837.3000 1839.4000 1841.6000 1843.8000 1846.0000 1848.1000 1850.3000 1852.5000 1854.6000 1856.8000 1859.0000 1861.2000 1863.3000 1865.5000 1867.7000 1869.8000 1872.0000 1874.2000 1876.3000 1878.5000 1880.7000 1882.9000 1885.0000 1887.2000 1889.4000 1891.5000 1893.7000 1895.9000 1898.1000 1900.2000 1902.4000 1904.6000 1906.7000 1908.9000 1911.1000 1913.3000 1915.4000 1917.6000 1919.8000 1921.9000 1924.1000 1926.3000 1928.5000 1930.6000 1932.8000 1935.0000 1937.1000 1939.3000 1941.5000 1943.7000 1945.8000 1948.0000 1950.2000 1952.3000 1954.5000 1956.7000 1958.8000 1961.0000 1963.2000 1965.4000 1967.5000 1969.7000 1971.9000 1974.0000 1976.2000 1978.4000 1980.6000 1982.7000 1984.9000 1987.1000 1989.2000 1991.4000 1993.6000 1995.8000 1997.9000 2000.1000 2002.3000 2004.4000 2006.6000 2008.8000 2011.0000 2013.1000 2015.3000 2017.5000 2019.6000 2021.8000 2024.0000 2026.1000 2028.3000 2030.5000 2032.7000 2034.8000 2037.0000 2039.2000 2041.3000 2043.5000 2045.7000 2047.9000 2050.0000 2052.2000 2054.4000 2056.5000 2058.7000
2022.1000 2019.9000 2017.7000 2015.6000 2013.4000 2011.2000 2009.0000 2006.9000 2004.7000 2002.5000 2000.4000 1998.2000 1996.0000 1993.8000 1991.7000 1989.5000 1987.3000 1985.1000 1983.0000 1980.8000 1978.6000 1976.4000 1974.3000 1972.1000 1969.9000 1967.7000 1965.6000 1963.4000 1961.2000 1959.0000 1956.9000 1954.7000 1952.5000 1950.3000 1948.2000 1946.0000 1943.8000 1941.6000 1939.5000 1937.3000 1935.1000 1932.9000 1930.8000 1928.6000 1926.4000 1924.2000 1922.1000 1919.9000 1917.7000 1915.5000 1913.4000 1911.2000 1909.0000 1906.8000 1904.7000 1902.5000 1900.3000 1898.1000 1896.0000 1893.8000 1891.6000 1889.5000 1887.3000 1885.1000 1882.9000 1880.8000 1878.6000 1876.4000 1874.2000 1872.1000 1869.9000 1867.7000 1865.5000 1863.4000 1861.2000 1859.0000 1856.8000 1854.7000 1852.5000 1850.3000 1848.1000 1846.0000 1843.8000 1841.6000 1839.4000 1837.3000 1835.1000 1832.9000 1830.7000 1828.6000 1826.4000 1824.2000 1822.0000 1819.9000 1817.7000 1815.5000 1813.3000 1811.2000 1809.0000 1806.8000 1804.6000 1802.5000 1800.3000 1798.1000 1795.9000 1793.8000 1791.6000 1789.4000 1787.2000 1785.1000 1782.9000 1780.7000 1778.5000 1776.4000 1774.2000 1772.0000 1769.9000 1767.7000 1765.5000 1763.3000 1761.2000 1759.0000 1756.8000 1754.6000 1752.5000 1750.3000 1748.1000 1745.9000 1743.8000 1741.6000 1739.4000 1737.2000 1735.1000 1732.9000 1730.7000 1728.5000 1726.4000 1724.2000 1722.0000 1719.8000 1717.7000 1717.7000 1719.8000 1722.0000 1724.2000 1726.4000 1728.5000 1730.7000 1732.9000 1735.1000 1737.2000 1739.4000 1741.6000 1743.8000 1745.9000 1748.1000 1750.3000 1752.5000 1754.6000 1756.8000 1759.0000 1761.2000 1763.3000 1765.5000 1767.7000 1769.9000 1772.0000 1774.2000 1776.4000 1778.5000 1780.7000 1782.9000 1785.1000 1787.2000 1789.4000 1791.6000 1793.8000 1795.9000 1798.1000 1800.3000 1802.5000 1804.6000 1806.8000 1809.0000 1811.2000 1813.3000 1815.5000 1817.7000 1819.9000 1822.0000 1824.2000 1826.4000 1828.6000 1830.7000 1832.9000 1835.1000 1837.3000 1839.4000 1841.6000 1843.8000 1846.0000 1848.1000 1850.3000 1852.5000 1854.7000 1856.8000 1859.0000 1861.2000 1863.4000 1865.5000 1867.7000 1869.9000 1872.1000 1874.2000 1876.4000 1878.6000 1880.8000 1882.9000 1885.1000 1887.3000 1889.5000 1891.6000 1893.8000 1896.0000 1898.1000 1900.3000 1902.5000 1904.7000 1906.8000 1909.0000 1911.2000 1913.4000 1915.5000 1917.7000 1919.9000 1922.1000 1924.2000 1926.4000 1928.6000 1930.8000 1932.9000 1935.1000 1937.3000 1939.5000 1941.6000 1943.8000 1946.0000 1948.2000 1950.3000 1952.5000 1954.7000 1956.9000 1959.0000 1961.2000 1963.4000 1965.6000 1967.7000 1969.9000 1972.1000 1974.3000 1976.4000 1978.6000 1980.8000 1983.0000 1985.1000 1987.3000 1989.5000 1991.7000 1993.8000 1996.0000 1998.2000 2000.4000 2002.5000 2004.7000 2006.9000 2009.0000 2011.2000 2013.4000 2015.6000 2017.7000 2019.9000 2022.1000 2024.3000 2026.4000 2028.6000 2030.8000 2033.0000 2035.1000 2037.3000 2039.5000 2041.7000 2043.8000 2046.0000 2048.2000 2050.4000 2052.5000 2054.7000 2056.9000
2020.2000 2018.0000 2015.9000 2013.7000 2011.5000 2009.3000 2007.1000 2005.0000 2002.8000 2000.6000 1998.4000 1996.3000 1994.1000 1991.9000 1989.7000 1987.5000 1985.4000 1983.2000 1981.0000 1978.8000 1976.7000 1974.5000 1972.3000 1970.1000 1967.9000 1965.8000 1963.6000 1961.4000 1959.2000 1957.1000 1954.9000 1952.7000 1950.5000 1948.3000 1946.2000 1944.0000 1941.8000 1939.6000 1937.4000 1935.3000 1933.1000 1930.9000 1928.7000 1926.6000 1924.4000 1922.2000 1920.0000 1917.8000 1915.7000 1913.5000 1911.3000 1909.1000 1907.0000 1904.8000 1902.6000 1900.4000 1898.2000 1896.1000 1893.9000 1891.7000 1889.5000 1887.4000 1885.2000 1883.0000 1880.8000 1878.6000 1876.5000 1874.3000 1872.1000 1869.9000 1867.8000 1865.6000 1863.4000 1861.2000 1859.0000 1856.9000 1854.7000 1852.5000 1850.3000 1848.2000 1846.0000 1843.8000 1841.6000 1839.4000 1837.3000 1835.1000 1832.9000 1830.7000 1828.5000 1826.4000 1824.2000 1822.0000 1819.8000 1817.7000 1815.5000 1813.3000 1811.1000 1808.9000 1806.8000 1804.6000 1802.4000 1800.2000 1798.1000 1795.9000 1793.7000 1791.5000 1789.3000 1787.2000 1785.0000 1782.8000 1780.6000 1778.5000 1776.3000 1774.1000 1771.9000 1769.7000 1767.6000 1765.4000 1763.2000 1761.0000 1758.9000 1756.7000 1754.5000 1752.3000 1750.1000 1748.0000 1745.8000 1743.6000 1741.4000 1739.3000 1737.1000 1734.9000 1732.7000 1730.5000 1728.4000 1726.2000 1724.0000 1721.8000 1719.6000 1717.5000 1715.3000 1715.3000 1717.5000 1719.6000 1721.8000 1724.0000 1726.2000 1728.4000 1730.5000 1732.7000 1734.9000 1737.1000 1739.3000 1741.4000 1743.6000 1745.8000 1748.0000 1750.1000 1752.3000 1754.5000 1756.7000 1758.9000 1761.0000 1763.2000 1765.4000 1767.6000 1769.7000 1771.9000 1774.1000 1776.3000 1778.5000 1780.6000 1782.8000 1785.0000 1787.2000 1789.3000 1791.5000 1793.7000 1795.9000 1798.1000 1800.2000 1802.4000 1804.6000 1806.8000 1808.9000 1811.1000 1813.3000 1815.5000 1817.7000 1819.8000 1822.0000 1824.2000 1826.4000 1828.5000 1830.7000 1832.9000 1835.1000 1837.3000 1839.4000 1841.6000 1843.8000 1846.0000 1848.2000 1850.3000 1852.5000 1854.7000 1856.9000 1859.0000 1861.2000 1863.4000 1865.6000 1867.8000 1869.9000 1872.1000 1874.3000 1876.5000 1878.6000 1880.8000 1883.0000 1885.2000 1887.4000 1889.5000 1891.7000 1893.9000 1896.1000 1898.2000 1900.4000 1902.6000 1904.8000 1907.0000 1909.1000 1911.3000 1913.5000 1915.7000 1917.8000 1920.0000 1922.2000 1924.4000 1926.6000 1928.7000 1930.9000 1933.1000 1935.3000 1937.4000 1939.6000 1941.8000 1944.0000 1946.2000 1948.3000 1950.5000 1952.7000 1954.9000 1957.1000 1959.2000 1961.4000 1963.6000 1965.8000 1967.9000 1970.1000 1972.3000 1974.5000 1976.7000 1978.8000 1981.0000 1983.2000 1985.4000 1987.5000 1989.7000 1991.9000 1994.1000 1996.3000 1998.4000 2000.6000 2002.8000 2005.0000 2007.1000 2009.3000 2011.5000 2013.7000 2015.9000 2018.0000 2020.2000 2022.4000 2024.6000 2026.7000 2028.9000 2031.1000 2033.3000 2035.5000 2037.6000 2039.8000 2042.0000 2044.2000 2046.4000 2048.5000 2050.7000 2052.9000 2055.1000
2018.3000 2016.2000 2014.0000 2011.8000 2009.6000 2007.4000 2005.2000 2003.1000 2000.9000 1998.7000 1996.5000 1994.3000 1992.2000 1990.0000 1987.8000 1985.6000 1983.4000 1981.2000 1979.1000 1976.9000 1974.7000 1972.5000 1970.3000 1968.2000 1966.0000 1963.8000 1961.6000 1959.4000 1957.3000 1955.1000 1952.9000 1950.7000 1948.5000 1946.3000 1944.2000 1942.0000 1939.8000 1937.6000 1935.4000 1933.3000 1931.1000 1928.9000 1926.7000 1924.5000 1922.3000 1920.2000 1918.0000 1915.8000 1913.6000 1911.4000 1909.3000 1907.1000 1904.9000 1902.7000 1900.5000 1898.3000 1896.2000 1894.0000 1891.8000 1889.6000 1887.4000 1885.3000 1883.1000 1880.9000 1878.7000 1876.5000 1874.4000 1872.2000 1870.0000 1867.8000 1865.6000 1863.4000 1861.3000 1859.1000 1856.9000 1854.7000 1852.5000 1850.4000 1848.2000 1846.0000 1843.8000 1841.6000 1839.4000 1837.3000 1835.1000 1832.9000 1830.7000 1828.5000 1826.4000 1824.2000 1822.0000 1819.8000 1817.6000 1815.5000 1813.3000 1811.1000 1808.9000 1806.7000 1804.5000 1802.4000 1800.2000 1798.0000 1795.8000 1793.6000 1791.5000 1789.3000 1787.1000 1784.9000 1782.7000 1780.5000 1778.4000 1776.2000 1774.0000 1771.8000 1769.6000 1767.5000 1765.3000 1763.1000 1760.9000 1758.7000 1756.6000 1754.4000 1752.2000 1750.0000 1747.8000 1745.6000 1743.5000 1741.3000 1739.1000 1736.9000 1734.7000 1732.6000 1730.4000 1728.2000 1726.0000 1723.8000 1721.6000 1719.5000 1717.3000 1715.1000 1712.9000 1712.9000 1715.1000 1717.3000 1719.5000 1721.6000 1723.8000 1726.0000 1728.2000 1730.4000 1732.6000 1734.7000 1736.9000 1739.1000 1741.3000 1743.5000 1745.6000 1747.8000 1750.0000 1752.2000 1754.4000 1756.6000 1758.7000 1760.9000 1763.1000 1765.3000 1767.5000 1769.6000 1771.8000 1774.0000 1776.2000 1778.4000 1780.5000 1782.7000 1784.9000 1787.1000 1789.3000 1791.5000 1793.6000 1795.8000 1798.0000 1800.2000 1802.4000 1804.5000 1806.7000 1808.9000 1811.1000 1813.3000 1815.5000 1817.6000 1819.8000 1822.0000 1824.2000 1826.4000 1828.5000 1830.7000 1832.9000 1835.1000 1837.3000 1839.4000 1841.6000 1843.8000 1846.0000 1848.2000 1850.4000 1852.5000 1854.7000 1856.9000 1859.1000 1861.3000 1863.4000 1865.6000 1867.8000 1870.0000 1872.2000 1874.4000 1876.5000 1878.7000 1880.9000 1883.1000 1885.3000 1887.4000 1889.6000 1891.8000 1894.0000 1896.2000 1898.3000 1900.5000 1902.7000 1904.9000 1907.1000 1909.3000 1911.4000 1913.6000 1915.8000 1918.0000 1920.2000 1922.3000 1924.5000 1926.7000 1928.9000 1931.1000 1933.3000 1935.4000 1937.6000 1939.8000 1942.0000 1944.2000 1946.3000 1948.5000 1950.7000 1952.9000 1955.1000 1957.3000 1959.4000 1961.6000 1963.8000 1966.0000 1968.2000 1970.3000 1972.5000 1974.7000 1976.9000 1979.1000 1981.2000 1983.4000 1985.6000 1987.8000 1990.0000 1992.2000 1994.3000 1996.5000 1998.7000 2000.9000 2003.1000 2005.2000 2007.4000 2009.6000 2011.8000 2014.0000 2016.2000 2018.3000 2020.5000 2022.7000 2024.9000 2027.1000 2029.2000 2031.4000 2033.6000 2035.8000 2038.0000 2040.1000 2042.3000 2044.5000 2046.7000 2048.9000 2051.1000 2053.2000
2016.5000 2014.3000 2012.1000 2009.9000 2007.7000 2005.5000 2003.3000 2001.2000 1999.0000 1996.8000 1994.6000 1992.4000 1990.2000 1988.0000 1985.9000 1983.7000 1981.5000 1979.3000 1977.1000 1974.9000 1972.8000 1970.6000 1968.4000 1966.2000 1964.0000 1961.8000 1959.6000 1957.5000 1955.3000 1953.1000 1950.9000 1948.7000 1946.5000 1944.3000 1942.2000 1940.0000 1937.8000 1935.6000 1933.4000 1931.2000 1929.1000 1926.9000 1924.7000 1922.5000 1920.3000 1918.1000 1915.9000 1913.8000 1911.6000 1909.4000 1907.2000 1905.0000 1902.8000 1900.6000 1898.5000 1896.3000 1894.1000 1891.9000 1889.7000 1887.5000 1885.4000 1883.2000 1881.0000 1878.8000 1876.6000 1874.4000 1872.2000 1870.1000 1867.9000 1865.7000 1863.5000 1861.3000 1859.1000 1856.9000 1854.8000 1852.6000 1850.4000 1848.2000 1846.0000 1843.8000 1841.7000 1839.5000 1837.3000 1835.1000 1832.9000 1830.7000 1828.5000 1826.4000 1824.2000 1822.0000 1819.8000 1817.6000 1815.4000 1813.2000 1811.1000 1808.9000 1806.7000 1804.5000 1802.3000 1800.1000 1798.0000 1795.8000 1793.6000 1791.4000 1789.2000 1787.0000 1784.8000 1782.7000 1780.5000 1778.3000 1776.1000 1773.9000 1771.7000 1769.5000 1767.4000 1765.2000 1763.0000 1760.8000 1758.6000 1756.4000 1754.3000 1752.1000 1749.9000 1747.7000 1745.5000 1743.3000 1741.1000 1739.0000 1736.8000 1734.6000 1732.4000 1730.2000 1728.0000 1725.8000 1723.7000 1721.5000 1719.3000 1717.1000 1714.9000 1712.7000 1710.6000 1710.6000 1712.7000 1714.9000 1717.1000 1719.3000 1721.5000 1723.7000 1725.8000 1728.0000 1730.2000 1732.4000 1734.6000 1736.8000 1739.0000 1741.1000 1743.3000 1745.5000 1747.7000 1749.9000 1752.1000 1754.3000 1756.4000 1758.6000 1760.8000 1763.0000 1765.2000 1767.4000 1769.5000 1771.7000 1773.9000 1776.1000 1778.3000 1780.5000 1782.7000 1784.8000 1787.0000 1789.2000 1791.4000 1793.6000 1795.8000 1798.0000 1800.1000 1802.3000 1804.5000 1806.7000 1808.9000 1811.1000 1813.2000 1815.4000 1817.6000 1819.8000 1822.0000 1824.2000 1826.4000 1828.5000 1830.7000 1832.9000 1835.1000 1837.3000 1839.5000 1841.7000 1843.8000 1846.0000 1848.2000 1850.4000 1852.6000 1854.8000 1856.9000 1859.1000 1861.3000 1863.5000 1865.7000 1867.9000 1870.1000 1872.2000 1874.4000 1876.6000 1878.8000 1881.0000 1883.2000 1885.4000 1887.5000 1889.7000 1891.9000 1894.1000 1896.3000 1898.5000 1900.6000 1902.8000 1905.0000 1907.2000 1909.4000 1911.6000 1913.8000 1915.9000 1918.1000 1920.3000 1922.5000 1924.7000 1926.9000 1929.1000 1931.2000 1933.4000 1935.6000 1937.8000 1940.0000 1942.2000 1944.3000 1946.5000 1948.7000 1950.9000 1953.1000 1955.3000 1957.5000 1959.6000 1961.8000 1964.0000 1966.2000 1968.4000 1970.6000 1972.8000 1974.9000 1977.1000 1979.3000 1981.5000 1983.7000 1985.9000 1988.0000 1990.2000 1992.4000 1994.6000 1996.8000 1999.0000 2001.2000 2003.3000 2005.5000 2007.7000 2009.9000 2012.1000 2014.3000 2016.5000 2018.6000 2020.8000 2023.0000 2025.2000 2027.4000 2029.6000 2031.7000 2033.9000 2036.1000 2038.3000 2040.5000 2042.7000 2044.9000 2047.0000 2049.2000 2051.4000
2014.6000 2012.4000 2010.2000 2008.0000 2005.8000 2003.6000 2001.4000 1999.2000 1997.1000 1994.9000 1992.7000 1990.5000 1988.3000 1986.1000 1983.9000 1981.7000 1979.6000 1977.4000 1975.2000 1973.0000 1970.8000 1968.6000 1966.4000 1964.2000 1962.0000 1959.9000 1957.7000 1955.5000 1953.3000 1951.1000 1948.9000 1946.7000 1944.5000 1942.3000 1940.2000 1938.0000 1935.8000 1933.6000 1931.4000 1929.2000 1927.0000 1924.8000 1922.7000 1920.5000 1918.3000 1916.1000 1913.9000 1911.7000 1909.5000 1907.3000 1905.1000 1903.0000 1900.8000 1898.6000 1896.4000 1894.2000 1892.0000 1889.8000 1887.6000 1885.4000 1883.3000 1881.1000 1878.9000 1876.7000 1874.5000 1872.3000 1870.1000 1867.9000 1865.8000 1863.6000 1861.4000 1859.2000 1857.0000 1854.8000 1852.6000 1850.4000 1848.2000 1846.1000 1843.9000 1841.7000 1839.5000 1837.3000 1835.1000 1832.9000 1830.7000 1828.5000 1826.4000 1824.2000 1822.0000 1819.8000 1817.6000 1815.4000 1813.2000 1811.0000 1808.9000 1806.7000 1804.5000 1802.3000 1800.1000 1797.9000 1795.7000 1793.5000 1791.3000 1789.2000 1787.0000 1784.8000 1782.6000 1780.4000 1778.2000 1776.0000 1773.8000 1771.6000 1769.5000 1767.3000 1765.1000 1762.9000 1760.7000 1758.5000 1756.3000 1754.1000 1752.0000 1749.8000 1747.6000 1745.4000 1743.2000 1741.0000 1738.8000 1736.6000 1734.4000 1732.3000 1730.1000 1727.9000 1725.7000 1723.5000 1721.3000 1719.1000 1716.9000 1714.7000 1712.6000 1710.4000 1708.2000 1708.2000 1710.4000 1712.6000 1714.7000 1716.9000 1719.1000 1721.3000 1723.5000 1725.7000 1727.9000 1730.1000 1732.3000 1734.4000 1736.6000 1738.8000 1741.0000 1743.2000 1745.4000 1747.6000 1749.8000 1752.0000 1754.1000 1756.3000 1758.5000 1760.7000 1762.9000 1765.1000 1767.3000 1769.5000 1771.6000 1773.8000 1776.0000 1778.2000 1780.4000 1782.6000 1784.8000 1787.0000 1789.2000 1791.3000 1793.5000 1795.7000 1797.9000 1800.1000 1802.3000 1804.5000 1806.7000 1808.9000 1811.0000 1813.2000 1815.4000 1817.6000 1819.8000 1822.0000 1824.2000 1826.4000 1828.5000 1830.7000 1832.9000 1835.1000 1837.3000 1839.5000 1841.7000 1843.9000 1846.1000 1848.2000 1850.4000 1852.6000 1854.8000 1857.0000 1859.2000 1861.4000 1863.6000 1865.8000 1867.9000 1870.1000 1872.3000 1874.5000 1876.7000 1878.9000 1881.1000 1883.3000 1885.4000 1887.6000 1889.8000 1892.0000 1894.2000 1896.4000 1898.6000 1900.8000 1903.0000 1905.1000 1907.3000 1909.5000 1911.7000 1913.9000 1916.1000 1918.3000 1920.5000 1922.7000 1924.8000 1927.0000 1929.2000 1931.4000 1933.6000 1935.8000 1938.0000 1940.2000 1942.3000 1944.5000 1946.7000 1948.9000 1951.1000 1953.3000 1955.5000 1957.7000 1959.9000 1962.0000 1964.2000 1966.4000 1968.6000 1970.8000 1973.0000 1975.2000 1977.4000 1979.6000 1981.7000 1983.9000 1986.1000 1988.3000 1990.5000 1992.7000 1994.9000 1997.1000 1999.2000 2001.4000 2003.6000 2005.8000 2008.0000 2010.2000 2012.4000 2014.6000 2016.8000 2018.9000 2021.1000 2023.3000 2025.5000 2027.7000 2029.9000 2032.1000 2034.3000 2036.5000 2038.6000 2040.8000 2043.0000 2045.2000 2047.4000 2049.6000
