ncols         298
nrows         32
xllcorner     100180
yllcorner     100680
cellsize      10
NODATA_value  -9999
2030.2451 2028.0845 2025.5142 2023.3798 2021.1493 2019.0022 2016.8388 2014.6708 2012.5623 2010.5802 2008.2842 2006.1269 2003.9021 2001.7013 1999.5250 1997.6173 1995.3848 1993.0936 1990.7455 1988.5836 1986.7085 1984.4779 1981.9306 1979.7817 1977.8162 1975.3852 1973.4102 1971.2027 1969.2620 1966.8014 1964.5604 1962.3812 1960.4367 1958.1936 1955.9855 1953.6053 1951.8981 1949.5388 1947.5242 1945.1315 1943.0297 1940.8083 1938.4298 1936.2863 1934.1941 1932.1145 1929.7980 1927.8642 1925.3606 1923.3967 1921.4295 1918.8316 1916.7244 1914.7750 1912.4677 1910.5013 1908.2960 1906.2038 1903.8393 1901.8583 1899.6705 1897.0253 1894.9801 1893.1482 1890.5152 1888.5060 1886.5712 1884.0512 1881.8422 1879.9714 1877.4389 1875.4319 1873.5569 1871.0872 1868.7460 1866.7251 1864.7729 1862.1825 1860.5014 1858.1884 1855.8804 1853.5477 1851.7839 1849.2354 1847.1817 1844.8712 1842.6911 1840.5628 1838.3677 1836.2740 1834.0928 1831.7637 1829.5917 1827.5056 1825.4455 1823.0897 1821.1000 1818.7871 1816.5833 1814.3390 1812.3472 1810.3206 1808.0640 1805.6965 1803.8219 1801.2599 1799.3260 1797.0953 1795.0257 1792.9915 1790.6956 1788.4926 1786.3267 1783.9860 1781.9344 1779.8473 1777.3982 1775.1324 1773.1228 1770.9952 1768.7202 1766.7699 1764.5694 1762.1632 1760.3255 1758.0997 1755.8592 1753.4937 1751.2998 1749.2048 1747.0670 1744.6650 1742.6885 1740.5663 1738.4330 1736.3937 1734.0569 1731.9033 1729.4732 1727.6564 1725.5097 1723.1152 1723.3612 1725.1525 1727.3739 1729.8172 1731.9216 1733.8085 1736.1184 1738.3273 1740.7397 1742.6107 1744.7477 1747.1364 1749.1061 1751.3673 1753.6859 1755.6474 1757.8039 1759.9890 1762.1810 1764.2760 1766.7631 1768.8381 1771.0177 1773.2223 1775.4863 1777.4767 1779.4670 1782.0946 1783.8739 1786.0699 1788.3807 1790.7266 1792.9107 1795.1529 1797.0615 1799.2736 1801.5490 1803.6712 1806.0138 1808.2225 1810.1047 1812.4138 1814.5874 1816.9456 1818.6814 1820.9234 1823.3676 1825.3421 1827.7886 1829.8239 1831.9434 1834.1753 1836.4451 1838.4733 1840.5702 1842.8895 1844.8547 1847.0659 1849.3322 1851.5006 1853.5444 1855.8295 1858.2066 1860.2972 1862.1929 1864.8021 1866.9207 1868.8711 1871.2156 1873.5322 1875.6813 1877.4737 1880.0184 1882.2611 1884.1243 1886.4194 1888.7352 1890.5607 1893.0241 1894.9321 1897.0104 1899.5529 1901.4826 1903.9160 1905.9006 1908.0756 1910.1714 1912.5885 1914.5208 1916.8033 1918.8334 1921.0392 1923.5241 1925.3893 1927.5221 1930.0790 1931.9751 1934.2307 1936.4152 1938.6734 1940.8255 1943.0675 1945.0846 1947.4807 1949.3108 1951.9218 1953.9412 1955.8414 1958.4176 1960.3853 1962.3970 1964.6136 1966.7144 1968.9105 1971.4816 1973.2360 1975.8152 1977.6646 1979.7848 1982.3783 1984.4902 1986.5693 1988.5750 1990.8724 1992.9492 1995.1062 1997.5889 1999.6878 2001.4946 2003.7198 2006.2898 2008.1869 2010.3734 2012.7980 2014.8617 2017.1264 2018.9954 2021.5669 2023.3666 2025.6822 2027.9242 2030.0230 2032.3119 2034.3892 2036.6571 2038.6425 2041.1175 2043.0857 2045.0393 2047.5354 2049.5098 2051.7649 2054.1668 2056.1799 2058.1547 2060.7602
2028.1584 2026.2970 2024.0133 2021.6288 2019.6228 2017.4671 2014.9654 2012.8037 2010.7511 2008.6489 2006.2087 2004.0893 2001.9109 1999.8517 1997.8781 1995.4786 1993.4199 1991.0841 1989.2030 1986.7392 1984.7806 1982.4615 1980.4569 1978.2426 1976.1453 1973.7160 1971.5741 1969.2443 1967.2937 1965.0077 1962.8759 1960.4595 1958.4782 1956.0889 1954.2367 1951.7523 1949.9948 1947.4536 1945.4693 1943.1583 1940.9697 1938.9451 1936.5186 1934.4828 1932.5443 1930.2808 1927.9746 1925.5702 1923.5528 1921.6425 1919.2102 1916.9970 1914.6551 1912.7595 1910.4263 1908.1899 1906.0762 1903.9547 1901.6955 1899.7454 1897.2733 1895.1374 1893.1678 1890.8410 1888.6270 1886.6289 1884.5289 1882.3055 1880.0953 1878.0696 1875.8990 1873.4073 1871.4823 1869.1763 1866.9352 1864.7329 1862.3437 1860.3220 1858.4383 1856.0595 1853.9665 1851.8048 1849.3018 1847.4554 1844.9127 1842.7936 1840.5499 1838.5380 1836.3423 1834.0729 1832.0704 1829.8510 1827.5353 1825.4611 1823.5212 1820.9259 1818.8656 1817.0361 1814.6256 1812.3141 1810.2811 1808.1338 1805.8270 1803.7604 1801.4819 1799.3656 1797.0217 1795.1868 1792.7954 1790.4139 1788.4240 1786.5017 1784.1332 1781.8849 1779.7984 1777.7406 1775.6101 1773.3433 1771.0728 1768.9397 1766.5292 1764.5799 1762.3194 1760.0885 1757.7224 1755.9192 1753.4587 1751.5227 1749.2400 1747.2410 1744.9682 1742.5589 1740.2963 1738.3291 1735.8864 1733.9351 1731.6612 1729.3978 1727.5542 1725.2042 1722.9815 1720.6337 1720.9197 1722.8845 1725.2768 1727.2393 1729.3920 1731.9910 1734.1685 1736.0346 1738.3547 1740.6786 1742.4404 1744.6789 1747.1746 1749.3847 1751.5316 1753.5625 1755.6347 1758.0166 1760.2453 1762.3557 1764.2336 1766.8901 1768.8034 1770.9716 1773.0886 1775.5719 1777.3399 1779.6538 1782.0297 1784.2670 1786.4601 1788.4547 1790.5346 1792.5813 1794.9148 1797.0706 1799.3251 1801.7101 1803.6140 1805.7796 1807.8536 1810.2911 1812.3220 1814.5914 1817.0387 1818.9780 1821.2417 1823.4607 1825.3794 1827.5400 1830.0906 1832.0633 1834.0768 1836.4124 1838.3559 1840.7742 1842.8693 1845.2365 1847.2219 1849.5089 1851.5715 1853.8627 1856.0227 1858.3943 1860.5823 1862.4517 1864.5083 1866.9340 1869.2378 1871.1440 1873.6584 1875.8840 1877.8210 1880.0911 1882.0260 1884.1274 1886.3939 1888.6034 1890.8086 1893.2278 1895.2373 1897.2716 1899.8613 1902.0261 1904.2340 1906.0806 1908.4355 1910.5334 1912.6895 1915.0435 1917.1285 1919.4619 1921.2760 1923.5155 1925.5577 1928.0995 1929.9215 1932.3530 1934.3624 1936.8397 1938.8115 1941.0667 1943.0712 1945.3375 1947.4358 1949.8402 1951.9488 1954.0110 1956.5576 1958.2563 1960.9024 1962.9740 1964.9820 1967.3453 1969.4476 1971.7048 1973.8025 1975.9961 1977.9988 1980.0576 1982.3415 1984.5634 1986.6670 1989.2608 1991.3978 1993.3023 1995.6875 1997.5735 1999.7120 2001.8754 2004.3179 2006.3285 2008.5853 2010.8977 2013.0906 2014.9294 2017.3824 2019.7843 2021.7323 2024.1004 2026.1955 2028.3527 2030.3574 2032.7466 2034.7977 2037.0465 2038.9554 2041.4442 2043.3692 2045.6668 2047.8059 2050.1110 2052.1282 2054.5905 2056.4749 2058.7952
2026.5941 2024.4540 2022.3551 2020.0136 2017.8159 2015.4388 2013.5235 2011.4373 2009.0804 2006.8529 2004.4359 2002.4566 2000.1827 1998.0994 1995.8957 1993.9002 1991.7310 1989.4518 1987.3359 1984.9760 1982.9631 1980.6987 1978.4041 1976.4340 1973.9736 1971.9250 1969.7503 1967.5983 1965.4592 1963.1648 1961.0841 1958.5502 1956.5039 1954.6237 1952.1649 1950.1111 1947.8409 1945.7477 1943.4685 1941.5539 1939.0511 1936.9950 1934.5298 1932.5559 1930.2968 1928.1115 1925.8451 1923.6561 1921.8100 1919.6415 1917.1196 1915.2130 1912.8099 1910.5296 1908.6259 1906.4515 1903.9794 1902.1975 1899.6493 1897.4322 1895.5713 1893.4357 1890.9029 1888.8618 1886.7189 1884.3533 1882.4744 1880.4281 1877.8025 1875.9757 1873.4996 1871.6577 1869.3037 1866.8720 1865.0713 1862.5678 1860.7352 1858.2784 1856.1754 1854.1407 1851.7302 1849.7529 1847.2427 1845.4733 1843.1975 1840.9276 1838.9031 1836.6820 1834.5475 1832.2800 1829.9408 1827.9277 1825.4022 1823.1873 1821.1260 1819.0931 1816.6886 1814.7583 1812.6397 1810.2034 1808.1010 1805.9743 1803.6746 1801.7697 1799.6323 1797.3504 1795.0508 1792.9336 1790.5477 1788.3689 1786.4658 1784.1107 1781.9701 1779.9235 1777.3241 1775.5152 1773.0428 1771.0989 1769.0293 1766.4974 1764.6461 1762.3243 1760.0199 1757.9775 1755.6235 1753.3284 1751.4462 1749.3454 1747.1945 1744.9760 1742.4435 1740.3438 1738.3623 1735.8995 1733.7513 1731.4704 1729.4956 1727.5166 1725.2427 1723.0056 1720.9955 1718.4717 1718.5784 1720.6387 1722.7685 1725.3413 1727.2443 1729.4944 1731.8601 1733.6868 1735.9344 1738.3591 1740.4586 1742.8249 1744.6155 1746.8894 1749.3196 1751.5660 1753.7435 1755.8439 1758.1041 1760.0727 1762.2970 1764.6067 1766.7940 1768.9873 1770.8051 1773.2533 1775.1417 1777.6536 1779.6234 1781.8664 1784.1561 1786.0633 1788.3555 1790.6239 1792.8636 1794.7986 1797.4541 1799.5702 1801.6286 1803.7174 1806.1979 1807.9509 1810.2496 1812.5422 1814.4893 1816.6451 1818.8770 1821.1609 1823.4324 1825.5670 1827.8107 1829.7436 1832.0997 1834.2460 1836.7054 1838.5018 1841.1021 1842.8470 1845.2786 1847.4120 1849.6562 1851.5679 1854.1224 1856.0086 1858.2973 1860.5512 1862.8138 1864.8016 1867.2283 1869.1439 1871.4730 1873.7066 1875.9490 1878.2288 1880.3551 1882.1384 1884.7108 1886.7224 1889.0502 1891.1378 1893.2553 1895.3516 1897.7518 1899.6398 1902.2192 1904.3322 1906.2319 1908.7178 1910.8157 1912.9525 1915.2743 1917.2667 1919.4807 1921.7183 1923.9851 1926.2270 1928.0778 1930.6121 1932.8168 1934.9602 1936.8754 1939.1911 1941.4910 1943.4918 1945.6820 1947.9367 1950.0917 1952.2698 1954.5900 1956.4249 1958.9991 1960.8782 1962.9543 1965.5663 1967.5090 1969.5703 1971.9137 1973.9731 1976.3507 1978.2155 1980.5162 1982.6261 1984.7584 1987.2155 1989.1998 1991.4670 1993.9268 1995.9852 1998.1199 2000.4715 2002.6984 2004.5160 2006.8343 2008.7799 2011.0225 2013.5499 2015.7171 2017.9767 2019.7228 2021.9090 2024.1925 2026.4617 2028.8751 2030.7883 2033.1968 2035.1230 2037.4538 2039.7155 2041.9571 2044.1082 2046.3658 2048.3224 2050.4968 2052.6430 2054.6281 2057.0257
2024.8238 2022.3551 2020.0900 2018.2385 2015.8541 2013.6344 2011.5007 2009.6185 2007.1975 2005.0883 2002.6717 2000.6028 1998.6260 1996.4707 1994.2077 1991.9101 1989.5729 1987.5143 1985.0837 1983.2245 1981.1956 1978.7280 1976.5767 1974.1740 1972.4082 1970.0377 1967.7350 1965.7182 1963.4407 1961.2723 1959.2881 1956.6813 1954.5295 1952.3743 1950.4766 1948.1967 1945.7229 1943.9495 1941.5224 1939.4731 1937.1995 1935.0187 1933.0549 1930.8515 1928.6332 1926.5289 1923.8902 1922.0244 1919.7728 1917.4866 1915.2463 1913.1677 1910.7725 1908.9571 1906.6819 1904.5907 1902.3134 1900.2417 1897.7165 1895.7597 1893.4981 1891.5270 1889.1571 1886.7381 1884.8737 1882.6332 1880.5923 1878.3141 1876.0314 1873.7820 1871.5290 1869.3080 1867.4774 1865.1453 1862.6340 1860.5096 1858.5885 1856.4115 1854.2059 1852.1328 1849.9029 1847.6993 1845.2067 1843.2273 1840.9406 1838.6928 1836.5987 1834.3673 1832.2413 1829.8503 1827.7973 1825.8669 1823.2992 1821.2164 1818.8950 1817.0177 1814.7320 1812.6852 1810.3640 1808.0237 1806.0217 1803.8843 1801.6509 1799.4517 1797.2014 1795.0103 1793.1045 1790.4624 1788.3724 1786.2452 1784.3207 1781.9607 1779.8043 1777.7011 1775.4560 1773.4523 1771.0093 1768.7147 1766.5470 1764.5634 1762.1063 1760.0755 1758.1457 1755.6147 1753.5194 1751.3104 1749.2016 1747.0563 1744.5511 1742.4549 1740.4194 1738.4441 1735.9490 1733.8445 1731.5348 1729.2941 1727.3184 1725.0604 1722.9610 1720.7825 1718.7511 1716.3219 1716.2025 1718.3978 1720.8186 1723.0525 1725.2791 1727.2112 1729.5039 1731.8501 1733.7851 1736.0459 1738.2799 1740.4190 1742.6552 1744.9843 1747.0441 1749.3036 1751.3032 1753.6742 1755.8874 1757.7274 1760.0239 1762.3285 1764.6379 1766.7745 1769.0173 1770.9399 1773.1417 1775.2937 1777.7401 1779.7233 1782.1113 1783.9058 1786.1859 1788.7429 1790.6285 1792.7199 1795.1646 1797.3185 1799.3479 1801.5730 1803.8527 1806.2202 1808.4427 1810.6324 1812.7790 1814.7733 1817.1830 1818.9462 1821.3732 1823.2630 1825.7084 1828.0771 1829.9826 1832.2176 1834.2237 1836.7077 1838.8540 1841.0890 1843.3803 1845.2010 1847.6947 1849.5931 1851.7945 1853.9720 1856.1900 1858.7338 1860.6963 1862.8457 1864.8213 1867.1669 1869.6179 1871.6103 1874.0064 1875.9411 1877.9959 1880.4627 1882.3975 1884.5334 1887.0398 1889.2107 1891.5487 1893.6706 1895.5879 1897.6628 1900.1290 1902.1431 1904.5173 1906.3737 1908.9822 1911.2049 1913.2248 1915.4197 1917.6415 1919.7624 1921.7246 1923.9856 1926.0763 1928.4944 1930.6193 1932.6767 1934.8604 1937.1927 1939.6335 1941.4092 1943.9112 1946.0705 1948.3935 1950.4068 1952.4535 1954.8869 1956.8257 1958.9000 1961.2360 1963.2744 1965.7600 1967.8130 1969.7977 1972.0630 1974.4554 1976.6131 1978.6406 1980.8563 1983.3539 1985.2417 1987.6638 1989.7160 1991.6509 1993.9714 1996.4137 1998.5005 2000.6394 2003.0624 2005.1490 2007.3340 2009.3022 2011.3742 2013.5604 2016.0484 2018.2927 2020.1224 2022.5258 2024.5404 2026.7515 2029.2218 2031.4336 2033.5487 2035.7390 2037.5649 2040.1544 2042.2247 2044.1839 2046.5824 2048.8712 2051.0284 2053.3456 2055.3450
2022.9413 2020.7730 2018.6614 2016.1023 2013.9197 2011.7456 2009.7245 2007.5311 2005.3635 2003.1680 2000.9943 1998.6893 1996.6287 1994.2280 1992.2305 1990.2945 1987.6449 1985.5676 1983.2618 1981.2244 1979.0797 1976.9579 1974.9473 1972.4220 1970.2644 1968.3992 1966.0719 1963.5493 1961.3458 1959.5153 1957.1863 1954.9534 1952.8192 1950.5558 1948.2394 1946.3022 1944.2867 1942.0076 1939.5770 1937.6028 1935.5536 1933.2736 1931.1749 1928.8881 1926.6814 1924.4834 1921.9218 1919.8358 1917.7302 1915.4186 1913.6350 1911.2365 1908.8531 1906.7423 1904.8734 1902.2494 1900.3289 1898.1712 1895.6941 1893.7590 1891.5858 1889.2113 1887.2107 1885.0425 1882.7864 1880.7454 1878.5436 1876.1644 1874.0957 1871.5973 1869.7865 1867.2749 1865.0347 1862.9654 1860.6892 1858.5822 1856.6582 1854.1482 1851.8519 1849.6662 1847.8852 1845.3779 1843.5113 1841.1097 1838.7057 1836.8750 1834.5697 1832.2546 1830.2163 1827.9732 1825.8401 1823.6238 1821.4399 1819.1733 1817.2751 1814.8386 1812.6064 1810.6839 1808.0685 1806.0917 1803.9255 1801.4744 1799.4015 1797.5517 1794.9252 1793.0436 1790.8393 1788.7288 1786.4578 1784.3088 1782.1654 1779.6907 1777.7497 1775.3417 1773.1245 1771.1170 1768.8815 1766.7242 1764.4129 1762.1439 1760.1553 1757.9997 1755.8989 1753.5773 1751.4810 1749.1091 1746.7279 1744.7744 1742.3484 1740.5444 1738.1553 1736.0186 1733.7346 1731.7684 1729.4638 1727.4736 1725.2489 1722.8912 1720.6338 1718.2883 1716.3883 1714.0904 1714.1151 1716.4286 1718.5941 1720.7177 1723.0928 1724.9893 1727.2513 1729.5725 1731.6938 1733.9403 1736.2051 1738.1088 1740.5585 1742.6133 1744.6283 1746.7551 1749.3944 1751.0892 1753.4016 1755.4991 1758.0296 1760.3043 1762.0405 1764.5747 1766.4842 1769.0995 1771.1171 1773.1502 1775.5492 1777.5327 1779.6998 1781.8822 1784.1507 1786.2570 1788.3610 1791.0021 1793.0412 1795.1693 1797.3325 1799.2735 1801.8249 1803.7601 1806.2849 1808.2491 1810.4420 1812.8819 1814.9151 1816.7947 1819.4391 1821.6365 1823.5654 1825.6694 1827.7642 1830.0775 1832.6024 1834.3926 1836.6696 1838.8122 1841.0256 1843.3170 1845.6190 1847.6311 1849.8144 1852.2089 1854.1435 1856.6147 1858.6348 1860.9132 1863.2640 1865.2033 1867.4659 1869.5919 1871.9346 1874.0298 1876.1948 1878.5385 1880.7441 1882.8155 1884.8649 1887.1132 1889.4137 1891.2631 1893.9221 1895.7240 1898.2521 1900.0839 1902.3446 1904.8128 1906.9942 1909.2678 1911.3430 1913.4307 1915.6964 1917.7080 1920.1646 1922.3738 1924.3005 1926.3590 1928.7098 1930.8779 1933.3636 1935.5467 1937.6858 1939.5171 1941.8648 1943.9803 1946.3987 1948.2659 1950.6554 1953.0224 1954.8341 1957.0976 1959.6177 1961.6354 1963.8759 1965.7719 1968.0663 1970.5880 1972.3235 1974.5073 1976.9683 1979.3289 1981.5101 1983.7295 1985.6026 1987.8126 1990.0252 1992.3765 1994.5768 1996.3807 1998.8739 2001.0140 2003.3766 2005.5665 2007.3989 2009.7876 2012.1748 2014.0589 2016.3379 2018.3894 2020.6000 2023.1359 2025.3383 2027.1129 2029.2658 2031.5140 2033.6882 2036.2089 2038.1379 2040.6145 2042.5730 2045.0234 2046.7619 2049.2352 2051.2918 2053.5254
2021.0186 2018.9446 2016.8189 2014.3420 2012.5721 2010.3549 2007.7697 2005.8042 2003.7675 2001.6216 1999.3975 1997.0271 1994.7850 1992.5840 1990.2037 1988.4138 1986.1741 1983.7647 1981.5258 1979.4588 1977.4368 1975.0591 1973.0742 1970.5983 1968.5302 1966.4096 1963.9377 1962.0649 1959.5391 1957.4620 1955.1989 1953.2798 1950.7719 1948.6133 1946.3059 1944.5693 1942.2715 1939.7378 1937.5741 1935.7961 1933.2848 1931.1700 1928.9787 1926.8303 1924.4016 1922.2620 1920.1343 1918.2048 1915.9815 1913.4785 1911.6445 1909.4581 1907.0751 1904.7776 1902.5485 1900.2656 1898.4396 1896.2155 1893.7382 1891.8720 1889.7322 1887.4194 1885.0515 1883.1825 1880.6792 1878.6101 1876.1267 1874.4111 1872.0976 1869.5882 1867.5913 1865.2962 1863.3882 1860.9971 1858.9861 1856.7107 1854.6519 1852.3990 1849.9988 1847.9640 1845.5030 1843.5376 1841.3446 1839.1903 1836.8741 1834.8963 1832.4748 1830.4707 1827.8815 1825.7911 1823.6620 1821.2840 1819.1137 1817.0280 1814.7453 1812.5529 1810.7884 1808.2361 1806.1326 1804.1826 1801.8816 1799.6744 1797.2344 1795.4109 1792.7920 1790.6728 1788.8040 1786.6603 1784.0366 1781.8163 1780.0262 1777.7563 1775.2743 1773.0671 1771.2879 1768.8607 1766.6373 1764.3277 1762.0717 1760.3009 1758.0140 1755.6800 1753.3458 1751.3144 1748.9607 1746.7642 1744.8514 1742.8087 1740.4159 1738.2751 1736.0886 1733.8749 1731.5204 1729.5099 1727.2644 1725.0632 1722.6141 1720.3986 1718.6259 1716.3464 1714.1382 1712.0033 1712.0867 1714.1603 1716.4407 1718.2025 1720.7278 1722.6065 1725.1930 1727.1650 1729.4616 1731.6298 1733.9918 1736.1036 1738.0386 1740.3096 1742.6174 1744.7669 1747.1367 1748.9536 1751.4866 1753.6095 1755.8110 1758.1211 1760.1402 1762.4307 1764.4994 1766.5549 1768.7983 1770.9747 1773.3159 1775.3631 1777.7721 1779.9772 1782.2894 1784.1999 1786.3585 1788.8650 1790.8881 1793.0383 1795.2506 1797.5161 1799.3585 1801.6611 1803.9637 1806.3452 1808.5919 1810.4896 1812.5847 1814.8161 1816.9585 1819.2918 1821.6021 1823.7164 1825.9688 1828.1650 1830.4906 1832.5464 1834.8110 1836.7236 1839.1885 1841.0745 1843.5333 1845.8734 1847.9189 1849.8829 1852.3292 1854.6664 1856.8317 1858.7196 1861.0105 1863.1479 1865.3695 1867.7389 1869.5755 1871.9809 1874.1394 1876.6103 1878.6382 1880.6219 1883.1523 1885.1331 1887.3429 1889.4203 1891.8865 1893.6741 1895.9148 1898.0868 1900.6197 1902.6318 1904.9141 1906.9361 1909.2714 1911.2489 1913.5578 1915.6784 1918.0076 1920.3653 1922.3040 1924.8372 1926.7092 1929.1808 1931.4241 1933.1574 1935.6315 1937.9190 1940.1575 1942.3953 1944.1773 1946.6045 1948.5413 1950.9751 1953.0071 1955.4143 1957.6209 1959.9196 1961.8028 1963.9823 1966.2490 1968.6885 1970.8019 1972.7336 1974.9573 1977.4901 1979.6310 1981.8827 1983.9212 1985.9197 1988.3386 1990.3182 1992.4891 1994.8397 1997.1942 1999.3798 2001.3899 2003.6815 2005.7394 2007.9061 2009.9981 2012.2785 2014.3476 2016.6514 2019.1253 2021.3296 2023.4073 2025.3109 2027.6922 2030.0511 2032.1505 2034.0975 2036.6603 2038.8552 2040.6601 2043.0524 2045.2080 2047.6354 2049.8329 2051.9638
2019.1624 2017.2717 2014.7088 2012.6906 2010.6269 2008.1892 2005.9597 2003.9271 2001.6292 1999.6261 1997.5611 1995.3574 1992.7810 1990.9809 1988.4813 1986.2389 1984.4266 1982.2024 1979.7948 1977.5060 1975.3440 1973.4192 1971.2438 1969.0297 1966.8116 1964.3304 1962.1331 1960.0759 1957.9842 1955.6658 1953.3203 1951.4119 1948.9387 1946.7683 1944.4397 1942.2199 1940.4545 1938.1130 1936.0852 1933.5023 1931.5303 1929.1396 1926.9650 1924.9056 1922.4464 1920.6389 1918.3969 1915.8675 1913.7992 1911.6852 1909.3086 1907.2950 1904.9406 1902.9806 1900.5751 1898.6591 1896.0939 1894.0977 1891.8981 1889.7488 1887.4708 1885.4662 1882.9812 1881.1485 1878.7767 1876.6450 1874.5081 1872.2349 1869.7481 1867.6487 1865.6013 1863.5506 1861.1523 1859.1251 1856.6418 1854.4946 1852.2030 1850.0032 1847.8556 1845.7432 1843.4914 1841.5163 1838.9846 1836.8404 1834.9829 1832.8199 1830.2359 1828.3743 1825.9498 1823.9647 1821.4597 1819.3836 1817.1535 1814.8475 1813.0424 1810.6026 1808.2769 1806.4512 1804.0195 1801.7260 1799.7856 1797.3110 1795.1127 1792.8425 1790.8854 1788.4745 1786.6446 1784.0778 1782.1123 1780.0600 1777.8671 1775.5895 1773.3244 1771.1409 1769.1496 1766.5344 1764.4989 1762.5534 1760.2312 1757.7894 1755.5568 1753.5131 1751.1752 1749.0561 1746.7266 1744.5970 1742.5570 1740.1266 1738.3386 1735.8757 1733.9266 1731.4289 1729.3356 1726.9335 1725.1368 1722.6943 1720.3488 1718.5402 1716.3635 1713.7888 1711.7063 1709.5707 1709.4760 1711.5566 1714.2304 1716.2296 1718.5821 1720.6427 1722.8616 1725.1596 1727.0049 1729.4251 1731.4210 1733.8676 1736.0962 1737.9426 1740.3693 1742.5901 1744.5050 1746.8128 1749.0010 1751.5649 1753.6129 1755.7316 1757.8328 1760.1636 1762.2498 1764.2938 1766.9062 1769.0077 1771.1064 1773.5318 1775.5359 1777.7004 1779.8203 1781.9344 1784.0414 1786.3836 1788.9112 1790.9070 1793.3017 1795.0510 1797.2762 1799.4823 1802.1096 1804.2794 1806.2683 1808.5300 1810.8961 1812.9232 1815.0801 1817.0224 1819.6010 1821.7236 1823.6420 1826.0531 1828.3692 1830.2915 1832.7146 1834.7908 1837.0313 1839.2987 1841.1936 1843.7013 1846.0474 1847.9328 1850.3170 1852.3116 1854.7178 1856.6041 1858.9194 1861.2844 1863.4121 1865.3777 1867.9065 1870.0953 1871.9970 1874.2975 1876.7127 1878.6686 1880.9903 1883.2673 1885.5839 1887.3905 1889.5270 1891.9023 1894.0647 1896.1419 1898.5398 1900.5478 1902.7005 1905.0473 1907.2451 1909.3191 1911.5127 1913.9653 1916.0686 1918.2870 1920.5961 1922.6727 1925.0706 1927.0605 1929.3624 1931.2746 1933.6115 1935.8117 1938.1986 1940.2168 1942.3885 1944.4399 1946.8241 1949.2717 1951.3385 1953.3218 1955.4224 1957.9062 1959.9322 1962.4227 1964.5992 1966.6527 1968.8990 1971.0858 1973.4257 1975.5375 1977.6023 1979.7245 1981.8164 1984.4447 1986.2908 1988.4171 1990.5700 1992.8921 1995.1709 1997.1884 1999.7806 2001.9934 2003.7623 2006.1678 2008.5803 2010.6799 2012.6960 2015.0662 2017.3957 2019.5665 2021.7093 2023.5348 2026.0589 2028.2495 2030.5009 2032.7431 2034.7028 2036.7501 2039.1552 2041.2361 2043.6586 2045.9070 2047.7455 2050.0372
2017.4005 2015.3396 2013.0751 2011.1409 2008.5893 2006.7741 2004.5740 2001.9856 1999.9306 1997.5786 1995.3682 1993.3660 1991.1663 1988.8822 1986.7449 1984.5577 1982.1313 1980.2219 1977.9207 1975.6045 1973.5672 1971.4885 1969.1775 1966.7975 1964.5674 1962.6059 1960.5392 1958.3627 1956.1560 1953.5901 1951.4902 1949.3839 1947.1121 1944.7602 1942.6656 1940.4976 1938.1917 1936.1890 1934.0743 1931.9923 1929.3868 1927.5931 1925.3073 1922.8394 1920.5519 1918.4013 1916.2510 1914.3448 1911.7605 1909.9086 1907.6939 1905.1943 1903.0971 1900.7265 1898.6912 1896.5926 1894.5870 1892.1719 1889.9736 1887.9719 1885.5074 1883.2497 1881.2936 1878.9090 1876.9631 1874.4321 1872.4625 1869.9228 1867.7790 1865.5236 1863.7976 1861.2292 1859.2173 1857.0693 1854.7682 1852.7566 1850.3138 1847.9905 1846.0116 1843.8856 1841.3616 1839.3743 1837.2169 1835.1624 1832.6469 1830.5924 1828.5357 1826.0550 1823.8414 1821.7157 1819.3208 1817.5078 1814.9981 1813.0194 1810.9115 1808.6876 1806.5571 1804.2166 1801.7788 1799.9748 1797.6151 1795.4016 1793.3655 1791.0160 1788.7998 1786.4115 1784.1064 1782.2150 1780.1965 1777.8503 1775.7604 1773.5592 1771.0285 1769.1737 1766.8668 1764.5288 1762.2843 1760.0084 1758.0527 1755.5215 1753.7337 1751.3727 1749.1413 1746.7113 1744.6928 1742.7715 1740.2358 1738.2069 1735.8227 1733.8216 1731.7329 1729.5960 1727.3098 1724.9056 1722.9350 1720.5283 1718.1391 1716.1260 1713.8994 1711.9936 1709.5528 1707.3282 1707.2125 1709.3411 1711.9327 1714.0735 1716.1482 1718.5607 1720.5424 1722.5972 1724.9737 1727.1634 1729.4371 1731.5854 1733.9815 1735.9233 1738.2280 1740.2835 1742.6066 1744.9900 1746.8951 1749.2587 1751.2313 1753.6134 1755.6373 1757.9600 1759.9043 1762.2498 1764.7210 1766.5763 1768.9628 1770.9023 1773.4885 1775.4837 1777.5154 1780.1506 1782.1344 1784.2937 1786.7189 1788.5095 1790.7083 1793.2476 1795.2941 1797.4795 1799.9709 1802.0637 1804.1510 1806.5466 1808.6798 1810.8491 1813.1373 1815.1111 1817.1441 1819.5789 1821.5514 1824.1064 1825.9671 1828.5136 1830.7767 1832.9058 1834.9147 1837.3064 1839.2919 1841.4908 1843.7526 1846.0175 1848.0844 1850.2894 1852.3612 1854.6302 1857.1049 1859.3767 1861.5679 1863.6572 1865.5656 1867.7446 1870.1757 1872.1656 1874.3441 1876.8502 1878.7415 1881.0611 1883.1528 1885.4830 1887.7424 1889.9626 1891.9447 1894.3309 1896.3361 1898.7069 1901.0068 1902.9426 1905.5445 1907.5484 1909.5702 1911.9820 1914.3465 1916.2834 1918.5528 1920.9543 1923.1700 1925.0108 1927.2607 1929.6144 1931.7896 1933.8658 1935.9440 1938.5293 1940.7115 1942.9017 1944.9367 1946.9630 1949.4634 1951.7961 1953.7447 1955.7723 1958.2762 1960.3368 1962.5543 1964.7270 1966.8976 1969.1771 1971.3801 1973.6719 1975.7444 1977.8635 1980.2551 1982.5388 1984.3647 1986.8022 1988.9200 1991.3458 1993.5139 1995.6253 1997.9093 2000.0551 2002.2849 2004.1229 2006.4425 2008.7020 2011.1741 2013.1270 2015.1505 2017.3980 2019.9647 2022.1243 2024.2083 2026.2298 2028.7563 2030.6557 2032.7837 2034.9248 2037.3021 2039.7298 2041.9298 2044.0227 2046.3013 2048.5745
2015.6453 2013.4983 2011.3723 2008.9691 2007.2042 2004.9105 2002.6863 2000.5723 1998.3506 1996.0085 1993.5027 1991.4183 1989.2067 1987.2509 1984.7072 1982.7137 1980.6799 1978.2621 1976.2422 1973.9415 1971.7687 1969.5919 1967.2928 1965.0582 1962.7644 1960.6755 1958.4695 1956.3464 1954.3128 1951.7523 1949.7601 1947.3934 1945.3542 1943.2501 1940.9404 1938.6827 1936.3003 1934.3074 1931.8060 1930.0938 1927.4198 1925.2648 1923.3314 1921.0305 1919.0682 1916.4650 1914.4957 1912.2439 1909.9294 1908.0215 1905.5049 1903.4007 1901.2160 1898.7933 1897.0384 1894.5948 1892.4235 1890.4245 1888.1811 1885.7278 1883.5920 1881.5428 1879.1354 1876.7847 1874.5641 1872.7253 1870.5986 1868.2188 1866.1633 1863.8572 1861.3559 1859.2197 1857.3094 1854.7877 1852.6672 1850.3860 1848.4885 1845.9443 1843.6788 1841.5847 1839.6812 1837.3039 1835.1958 1832.9985 1830.6139 1828.6943 1826.0808 1824.2258 1821.7013 1819.6719 1817.5335 1815.4850 1812.9812 1810.7432 1808.8922 1806.4581 1804.1206 1801.9693 1800.0249 1797.7475 1795.4149 1793.1978 1791.0866 1788.7902 1786.6695 1784.2896 1782.2631 1780.0953 1777.9895 1775.5842 1773.4025 1771.3775 1769.2279 1766.6017 1764.3580 1762.4711 1760.2771 1758.2022 1755.7872 1753.6187 1751.1845 1748.9784 1746.8910 1744.8692 1742.4291 1740.3606 1738.3248 1735.8570 1733.9215 1731.6843 1729.4070 1726.8930 1724.8148 1722.7206 1720.4009 1718.2769 1716.3279 1713.9881 1711.7751 1709.2730 1707.4052 1704.9466 1705.2388 1707.2100 1709.4552 1711.9025 1713.9619 1716.3008 1718.5494 1720.5572 1722.5284 1725.0291 1726.9548 1729.1062 1731.6850 1733.8929 1735.8425 1738.0929 1740.4150 1742.6155 1744.6692 1746.9991 1749.3187 1751.3451 1753.4161 1756.0092 1758.1515 1760.1917 1762.1844 1764.8356 1766.8092 1769.1321 1771.3163 1773.5912 1775.4214 1777.9915 1779.8553 1782.3172 1784.3646 1786.4110 1788.8250 1791.0213 1793.4752 1795.5702 1797.6998 1799.8139 1801.9996 1804.1616 1806.6833 1808.5094 1811.0590 1813.1270 1815.1129 1817.3774 1819.8718 1821.8662 1824.0077 1826.5064 1828.7285 1830.4711 1832.8483 1834.8979 1837.4746 1839.5693 1841.5066 1843.8237 1845.9037 1848.2681 1850.6029 1852.7903 1854.9783 1857.1624 1859.2344 1861.5675 1863.6349 1866.0007 1868.3917 1870.5256 1872.6484 1874.8996 1876.9779 1879.3065 1881.5803 1883.5754 1886.0041 1888.1763 1890.0559 1892.2932 1894.4714 1896.9746 1898.8378 1900.9901 1903.6338 1905.6312 1907.5883 1910.1526 1912.2356 1914.6083 1916.7116 1918.8132 1921.2544 1923.1699 1925.5296 1927.7366 1929.9744 1932.1860 1934.2290 1936.6478 1938.4599 1941.0367 1943.1036 1945.0579 1947.5383 1949.6924 1951.8451 1954.1695 1956.0687 1958.4677 1960.8385 1963.0814 1964.9099 1967.1267 1969.5512 1971.9290 1973.8174 1975.9904 1978.1885 1980.3663 1982.4924 1984.8598 1987.1879 1989.5650 1991.6526 1993.9192 1995.9719 1997.9792 2000.4175 2002.7720 2004.5887 2006.7792 2008.9921 2011.4838 2013.3947 2015.9034 2017.8630 2020.3690 2022.1559 2024.6789 2027.0322 2028.8485 2031.1837 2033.3432 2035.6619 2037.9091 2040.2741 2042.3201 2044.5222 2046.4400
2013.8305 2011.9401 2009.7865 2007.3938 2005.0861 2002.7407 2000.8041 1998.7565 1996.1039 1994.2713 1991.8123 1989.9051 1987.6725 1985.5250 1982.9997 1980.6794 1978.6053 1976.4172 1974.3456 1972.0569 1969.6357 1967.8970 1965.2828 1963.3508 1961.2290 1958.7005 1956.6147 1954.3396 1952.2365 1950.1404 1947.7746 1945.3897 1943.2048 1941.3978 1939.0555 1936.9725 1934.4037 1932.4530 1930.2836 1927.7079 1925.7074 1923.7702 1921.5583 1918.9867 1916.7529 1914.7394 1912.4288 1910.5015 1907.9438 1906.0799 1903.8314 1901.5221 1899.4793 1897.2295 1894.7966 1892.6885 1890.6634 1888.3677 1885.7755 1883.9997 1881.7834 1879.5129 1877.0827 1875.0386 1872.8542 1870.4485 1868.4700 1866.2902 1863.6911 1861.9365 1859.5109 1857.4570 1855.0788 1852.7201 1850.6933 1848.5943 1846.1211 1844.0166 1842.0645 1839.7817 1837.3674 1835.4171 1833.1411 1830.8739 1828.5724 1826.4190 1824.0414 1821.8963 1819.9710 1817.4795 1815.3257 1812.9391 1811.0096 1809.0041 1806.8038 1804.5084 1802.3351 1799.8807 1797.8075 1795.5547 1793.1364 1791.0867 1789.0445 1786.8420 1784.5186 1782.4130 1780.1947 1778.0987 1775.5869 1773.6086 1771.3918 1769.2266 1766.5972 1764.8259 1762.4385 1760.3097 1758.1472 1755.8122 1753.5517 1751.2765 1749.0551 1747.0976 1744.5904 1742.4490 1740.1815 1738.3649 1735.7442 1733.5527 1731.3851 1729.2193 1727.2236 1724.9106 1722.7367 1720.4275 1718.2226 1715.9545 1714.0340 1711.7809 1709.3420 1707.0736 1705.0267 1702.7123 1702.8335 1704.8804 1707.3309 1709.4602 1711.8452 1714.0289 1715.8710 1718.5200 1720.5879 1722.5201 1724.9171 1727.2619 1729.2469 1731.6799 1733.8788 1735.7982 1738.1421 1740.5737 1742.7406 1744.7915 1746.7916 1749.2730 1751.3502 1753.6747 1755.8657 1757.8958 1760.3590 1762.4944 1764.6664 1766.6950 1769.2733 1771.1163 1773.3596 1775.4433 1777.9166 1779.8699 1782.5249 1784.3096 1786.7473 1788.8634 1790.9624 1793.5030 1795.4651 1797.7140 1799.8586 1802.3346 1804.4199 1806.4861 1808.8680 1811.1298 1813.1313 1815.5303 1817.5265 1819.6395 1821.9478 1824.4113 1826.4139 1828.8678 1830.7917 1833.1551 1835.4626 1837.5347 1839.5979 1841.9509 1844.3080 1846.1126 1848.2715 1850.7410 1852.8326 1855.0381 1857.2160 1859.6805 1861.7324 1863.7804 1866.2076 1868.3792 1870.4465 1873.0014 1874.9708 1877.0931 1879.5635 1881.6080 1884.0142 1886.0121 1888.3494 1890.5666 1892.6220 1894.9083 1897.0292 1899.2938 1901.2973 1903.8456 1905.8857 1908.2514 1910.2359 1912.6321 1914.8419 1916.9874 1919.2509 1921.2138 1923.3227 1925.6646 1928.1295 1930.3187 1932.5222 1934.6912 1936.7259 1939.1599 1941.2580 1943.6014 1945.3537 1947.5976 1949.8256 1952.4104 1954.3694 1956.7780 1958.6141 1961.0661 1963.2746 1965.6905 1967.5690 1969.9990 1971.9417 1974.2304 1976.3542 1978.4545 1980.7041 1983.2195 1985.1611 1987.6060 1989.8073 1991.8700 1994.0525 1996.2377 1998.5999 2000.9770 2002.7832 2004.9529 2007.4152 2009.7521 2011.8958 2014.0787 2016.3277 2018.4679 2020.7788 2022.6904 2025.2553 2027.4576 2029.5829 2031.5411 2033.6784 2036.1140 2038.4553 2040.3585 2042.6316 2045.1434
2012.0278 2010.1669 2007.8794 2005.6704 2003.1454 2001.0245 1999.1188 1996.5696 1994.7753 1992.5073 1990.0943 1987.8884 1985.6192 1983.6731 1981.2283 1979.0943 1977.0785 1974.6788 1972.6204 1970.1185 1968.1586 1966.0264 1963.6115 1961.6141 1959.3322 1956.9109 1954.9131 1952.5260 1950.3285 1948.3232 1945.8040 1943.6981 1941.6532 1939.2584 1937.2437 1934.6697 1932.4124 1930.2232 1928.4430 1926.0252 1924.0211 1921.8148 1919.3220 1917.3021 1914.9094 1912.8527 1910.4601 1908.5884 1906.2996 1904.0252 1901.6189 1899.4553 1897.4723 1895.3049 1892.9256 1890.4914 1888.5555 1886.1998 1884.2355 1881.7948 1879.4338 1877.6415 1875.3196 1873.1601 1870.5424 1868.3308 1866.2156 1864.2576 1862.0137 1859.9605 1857.4459 1855.1287 1853.3155 1850.8421 1848.5087 1846.4625 1844.0810 1841.9199 1839.6868 1837.6212 1835.4534 1833.2662 1830.9442 1829.0237 1826.5885 1824.4993 1822.1108 1819.8375 1817.4846 1815.4946 1813.5547 1811.1844 1809.1297 1806.7525 1804.4946 1802.5007 1800.2447 1797.7062 1795.5705 1793.4639 1791.1471 1789.1399 1786.9341 1784.5382 1782.1894 1780.2553 1777.9128 1775.9214 1773.4472 1771.5168 1768.9467 1766.8934 1764.7372 1762.5515 1760.1585 1757.8412 1755.7163 1753.8049 1751.3537 1749.2352 1747.0680 1744.8032 1742.6415 1740.1476 1738.2854 1735.8555 1733.9299 1731.6267 1729.1262 1727.2283 1724.6723 1722.8640 1720.4707 1718.2019 1715.8585 1714.0087 1711.6547 1709.6553 1707.2400 1704.8998 1702.6458 1700.7928 1700.6517 1702.6159 1705.1653 1707.1633 1709.2461 1711.5379 1713.8082 1715.8990 1718.4002 1720.3840 1722.7553 1724.6506 1726.8679 1729.2479 1731.7126 1733.6359 1735.8755 1737.9828 1740.2000 1742.5175 1744.5701 1746.8532 1749.1916 1751.2653 1753.8025 1756.0058 1758.0776 1760.4814 1762.6443 1764.6946 1766.6740 1769.3242 1771.2324 1773.6772 1775.5287 1777.9756 1779.9740 1782.3222 1784.6969 1786.8820 1788.8636 1790.9888 1793.4909 1795.6167 1797.6050 1799.9500 1802.0362 1804.4900 1806.5770 1808.9583 1811.0521 1813.2890 1815.4101 1817.8085 1819.8736 1821.9447 1824.1191 1826.3921 1828.9339 1831.0510 1833.3914 1835.4689 1837.6822 1839.6874 1842.2349 1844.1115 1846.4999 1848.9072 1850.7103 1853.1404 1855.4311 1857.3617 1859.9362 1862.0260 1864.2937 1866.4519 1868.3391 1870.5557 1872.9895 1875.0123 1877.2896 1879.4565 1881.8978 1884.2054 1886.4329 1888.6226 1890.5500 1892.6763 1895.1561 1897.4985 1899.4413 1901.6501 1903.7366 1906.0653 1908.5686 1910.6812 1912.9373 1915.0975 1916.9847 1919.5694 1921.7993 1923.9713 1925.9459 1928.1970 1930.5258 1932.6338 1934.8919 1936.8793 1939.2651 1941.5693 1943.8117 1946.1013 1948.2922 1950.3932 1952.3255 1954.9271 1957.0779 1959.3135 1961.2844 1963.4244 1965.8236 1968.0622 1970.1337 1972.4272 1974.8416 1976.7305 1979.2217 1981.1775 1983.6832 1985.8239 1987.9852 1990.1848 1992.4633 1994.3936 1996.6169 1998.9283 2001.0677 2003.6225 2005.8216 2008.0266 2010.0687 2012.3157 2014.4789 2016.6856 2018.6832 2021.1392 2023.5138 2025.3239 2027.7908 2030.0657 2032.2459 2034.2689 2036.6256 2038.6191 2040.9523 2043.1143
2010.5183 2008.0587 2006.1712 2003.8755 2001.5369 1999.1690 1997.3819 1994.8222 1992.8525 1990.5954 1988.4141 1985.8543 1984.0470 1981.6975 1979.7012 1977.0820 1974.9033 1973.0120 1970.8239 1968.2663 1966.1095 1963.7606 1961.8027 1959.4697 1957.2439 1954.9092 1952.9232 1950.4877 1948.3525 1946.0342 1944.2614 1941.8913 1939.6279 1937.1492 1935.0737 1933.0738 1930.8859 1928.7752 1926.4931 1924.0474 1922.0559 1919.6303 1917.2522 1915.0759 1912.9964 1910.7438 1908.5361 1906.1744 1904.3559 1901.9219 1899.7468 1897.3818 1895.4038 1893.0515 1890.7159 1888.6830 1886.5294 1884.3809 1881.9136 1879.9793 1877.7660 1875.2019 1873.0329 1870.8003 1868.9391 1866.3993 1864.1001 1861.9762 1859.7554 1857.8231 1855.5981 1853.4337 1850.9477 1848.9776 1846.6314 1844.4964 1842.1814 1840.0219 1837.8059 1835.8048 1833.1804 1831.3023 1829.0363 1826.5164 1824.4404 1822.3066 1820.0413 1817.9749 1815.8543 1813.4234 1811.0671 1809.2187 1806.6030 1804.7190 1802.5909 1800.2403 1797.7697 1795.4975 1793.4250 1791.1293 1788.8710 1787.0123 1784.6184 1782.4920 1780.4192 1778.0439 1775.8584 1773.6644 1771.1779 1769.2557 1767.0049 1764.6239 1762.6540 1760.4933 1758.0468 1756.0386 1753.5001 1751.6905 1749.4334 1747.2728 1744.7914 1742.5260 1740.5453 1737.9876 1735.7784 1733.7415 1731.7803 1729.2024 1727.2181 1724.8344 1722.8232 1720.4509 1718.1006 1715.9830 1713.8692 1711.4036 1709.3185 1707.2828 1704.8037 1702.7567 1700.6507 1698.5340 1698.4647 1700.4646 1702.9773 1704.8076 1707.0105 1709.3327 1711.6103 1713.8772 1716.0780 1718.4670 1720.2346 1722.4528 1724.7509 1727.1603 1729.1934 1731.5220 1733.6098 1736.0137 1738.2721 1740.5656 1742.7480 1745.0358 1746.8506 1749.2983 1751.4337 1753.4657 1755.8364 1758.1376 1760.5266 1762.3668 1764.8846 1766.7975 1769.1178 1771.3685 1773.5906 1775.7462 1777.9048 1780.3641 1782.3708 1784.6981 1787.0009 1789.1752 1791.4873 1793.4143 1795.8262 1797.7480 1800.0910 1802.4466 1804.7631 1806.8032 1809.1844 1811.0836 1813.2279 1815.6767 1817.9761 1819.8360 1822.0475 1824.4745 1826.6234 1829.0907 1831.0928 1833.5652 1835.6790 1837.8081 1840.1608 1842.0262 1844.4257 1846.4086 1848.8601 1850.8550 1853.1547 1855.6353 1857.9088 1860.0396 1862.2267 1864.1654 1866.4148 1868.6655 1871.1201 1873.1386 1875.3565 1877.8245 1879.8392 1882.1605 1884.1639 1886.4149 1888.4657 1890.7543 1893.3185 1895.2035 1897.5446 1899.6551 1901.7758 1904.1406 1906.3934 1908.7153 1910.6077 1912.9750 1915.4430 1917.6852 1919.8323 1921.8101 1924.0331 1926.4828 1928.5063 1930.5936 1932.9666 1935.1993 1937.1776 1939.3791 1941.9413 1944.0343 1946.4321 1948.3359 1950.6111 1953.0951 1954.8560 1957.3126 1959.4062 1961.9660 1963.8447 1965.9801 1968.1474 1970.6989 1972.9193 1975.0379 1977.4807 1979.5629 1981.8054 1983.6352 1986.0633 1988.2854 1990.6999 1992.5918 1994.8035 1997.3037 1999.3223 2001.4294 2003.9508 2006.1692 2008.4211 2010.5091 2012.6354 2014.9942 2016.9224 2019.1679 2021.3769 2023.7643 2025.7927 2027.9675 2030.3882 2032.3948 2034.7233 2037.0211 2039.2751 2041.4565
2008.6485 2006.3437 2004.1225 2001.9484 1999.6969 1997.5380 1995.2997 1993.0239 1990.8554 1988.6825 1986.3464 1984.0959 1982.2831 1979.7807 1977.3782 1975.2977 1973.1589 1970.9192 1968.6653 1966.3248 1964.0897 1961.8860 1959.9954 1957.9187 1955.2158 1953.4456 1950.9372 1949.0050 1946.7369 1944.4887 1942.0254 1939.7472 1937.8817 1935.6508 1933.1565 1931.1569 1928.7117 1926.6866 1924.2438 1922.3470 1919.8285 1917.7866 1915.5461 1913.5258 1910.9888 1908.8928 1906.7827 1904.4469 1902.0906 1899.8688 1897.7867 1895.5873 1893.2570 1891.2582 1888.7330 1886.4916 1884.7049 1882.3241 1880.3192 1877.7794 1875.6707 1873.2743 1871.4202 1869.2072 1866.9444 1864.3261 1862.3564 1860.1875 1858.0236 1855.4717 1853.5894 1851.0402 1848.9907 1846.5866 1844.6387 1842.2332 1840.0175 1837.8893 1835.9751 1833.6688 1831.1304 1829.1746 1827.0277 1824.4972 1822.6406 1820.2438 1818.0071 1815.8360 1813.4832 1811.1152 1808.9601 1806.8322 1804.8795 1802.6927 1800.3579 1798.1177 1795.8430 1793.4414 1791.1742 1789.2557 1786.8329 1784.7303 1782.7239 1780.5465 1777.9538 1775.6526 1773.8547 1771.5048 1769.0863 1767.0957 1764.7327 1762.4692 1760.3201 1758.3157 1755.8419 1753.6392 1751.4882 1749.4893 1746.9325 1744.9147 1742.6073 1740.2969 1738.1945 1736.1192 1733.7294 1731.4151 1729.2304 1726.9010 1724.9368 1722.4673 1720.5037 1718.3530 1716.1514 1714.0396 1711.8246 1709.3567 1706.9153 1705.1366 1702.6029 1700.4228 1698.4922 1696.1542 1696.3215 1698.4754 1700.4866 1702.9240 1704.8704 1707.2360 1709.1507 1711.8104 1713.8993 1715.8637 1718.3309 1720.3112 1722.7684 1725.1094 1727.1479 1729.1364 1731.6664 1733.5337 1735.8716 1738.1677 1740.4021 1742.7926 1744.8708 1747.2912 1749.4803 1751.2643 1753.5366 1756.0523 1758.2380 1760.5490 1762.7088 1764.9201 1766.7878 1769.2708 1771.2443 1773.9003 1775.9981 1778.1299 1780.4406 1782.5609 1784.7060 1787.0162 1789.2976 1791.2338 1793.7639 1795.6050 1798.2205 1800.3355 1802.3194 1804.6320 1806.8122 1809.3789 1811.4268 1813.6373 1815.7107 1817.8437 1820.2513 1822.4494 1824.6874 1826.8027 1828.9262 1831.5111 1833.7362 1835.6582 1837.8234 1840.0406 1842.3199 1844.5484 1846.9083 1848.8540 1851.4110 1853.7080 1855.9117 1857.8326 1860.3097 1862.2900 1864.4181 1866.9139 1869.0172 1871.3875 1873.6054 1875.5938 1877.6340 1879.8386 1882.1087 1884.6232 1886.8015 1889.1092 1891.2995 1893.1392 1895.7807 1897.9695 1899.9871 1902.4111 1904.3828 1906.6944 1908.8851 1911.2191 1913.0890 1915.5939 1917.7741 1919.8243 1922.2347 1924.2076 1926.6134 1928.7318 1931.1940 1933.4267 1935.4875 1937.7320 1939.7039 1942.2526 1944.2877 1946.4806 1948.9461 1950.8061 1953.3115 1955.6443 1957.4339 1959.6632 1962.2026 1964.4331 1966.4964 1968.5152 1971.1678 1973.0231 1975.2774 1977.7835 1980.0165 1981.8248 1984.0419 1986.3257 1988.7927 1991.1567 1992.9705 1995.5258 1997.6897 1999.5675 2002.0239 2004.0729 2006.2181 2008.8881 2010.7109 2013.0382 2015.5213 2017.5804 2019.7089 2021.7391 2024.0002 2026.3922 2028.8395 2030.5861 2033.0870 2035.1184 2037.3495 2039.4938
2006.7540 2004.8023 2002.6746 2000.4082 1998.1317 1995.9080 1993.6774 1991.1034 1988.8774 1986.7450 1984.6172 1982.5185 1980.1046 1978.0908 1975.7898 1973.6774 1971.2976 1969.3508 1966.8067 1964.7827 1962.6080 1960.1868 1957.7907 1955.6384 1953.4114 1951.3833 1948.9363 1946.9231 1944.7867 1942.6839 1940.0891 1937.9648 1935.6716 1933.4759 1931.2348 1928.9758 1926.8229 1924.8366 1922.3214 1920.2177 1917.9534 1915.9361 1913.6005 1911.4710 1909.4314 1907.0893 1904.9440 1902.2921 1900.1687 1897.9242 1896.0839 1893.5527 1891.4118 1889.4534 1886.8076 1884.5256 1882.6663 1880.5446 1878.2760 1875.7204 1873.4572 1871.3110 1869.1698 1867.2397 1864.7460 1862.3414 1860.1088 1858.2216 1855.7887 1853.4593 1851.4722 1849.0386 1847.0723 1844.7187 1842.5184 1840.5318 1838.3493 1836.0992 1833.7952 1831.6103 1829.1293 1826.9153 1824.6972 1822.6790 1820.3963 1818.1647 1816.1758 1813.9316 1811.3051 1809.0675 1806.9945 1804.6781 1802.6648 1800.1978 1798.3274 1796.0477 1793.8814 1791.6975 1789.1866 1787.2538 1784.8729 1782.6886 1780.2323 1778.2133 1775.8281 1773.7674 1771.5943 1769.3541 1767.1411 1764.6637 1762.6373 1760.2846 1758.4394 1756.2268 1753.9862 1751.3634 1749.1551 1747.1104 1744.8876 1742.6593 1740.5396 1738.1479 1735.9166 1733.9841 1731.7258 1729.5092 1727.0457 1724.9014 1722.6128 1720.5327 1718.2529 1716.0715 1713.9006 1711.4288 1709.1779 1706.9882 1704.9505 1702.6577 1700.5722 1698.4465 1695.8155 1694.0256 1693.5757 1695.8404 1698.1639 1700.4572 1702.5976 1704.8710 1706.9188 1709.1692 1711.5334 1713.5667 1716.1175 1717.9963 1720.6201 1722.8055 1724.7887 1726.9112 1729.1849 1731.5749 1733.6377 1735.8378 1738.2798 1740.2842 1742.5289 1744.8629 1747.2645 1749.2598 1751.4602 1753.8097 1755.7654 1757.9808 1760.3504 1762.7552 1764.6388 1766.8950 1769.2855 1771.5194 1773.5745 1775.8762 1778.4006 1780.2122 1782.7326 1784.6956 1786.8809 1789.3515 1791.2964 1793.5367 1795.9576 1798.0354 1800.6301 1802.6332 1804.9327 1807.2435 1809.5230 1811.4145 1813.7729 1816.0204 1818.2835 1820.4716 1822.6547 1824.8562 1826.8997 1829.2878 1831.2914 1833.9052 1835.6939 1837.9958 1840.2313 1842.3828 1844.9365 1846.8041 1849.2367 1851.6856 1853.4763 1855.9192 1858.1468 1860.1657 1862.4730 1865.0206 1867.0072 1869.3158 1871.3906 1873.9011 1875.8828 1878.1294 1880.3821 1882.6598 1884.6820 1886.8006 1889.0075 1891.3528 1893.5449 1895.8668 1897.8766 1900.2688 1902.3860 1904.6183 1906.9151 1909.3443 1911.2267 1913.3963 1915.7743 1918.2632 1920.5002 1922.4801 1924.8815 1927.1841 1929.3750 1931.1519 1933.4637 1935.7511 1937.9635 1940.4684 1942.6112 1944.6237 1946.9603 1949.0537 1951.1926 1953.3819 1955.7456 1957.9770 1960.2199 1962.5334 1964.8723 1967.1045 1969.1399 1971.2129 1973.3512 1975.9751 1977.9460 1980.4186 1982.4005 1984.9021 1987.1415 1989.2650 1991.1612 1993.4654 1995.6765 1997.8603 2000.4115 2002.6094 2004.7599 2007.0923 2008.9065 2011.4708 2013.6480 2015.8347 2018.1774 2020.0319 2022.6640 2024.7422 2027.0976 2029.0346 2031.1949 2033.6001 2035.5381 2037.9595
2004.9585 2002.8602 2000.5638 1998.3431 1996.2149 1993.8637 1991.9089 1989.3876 1987.2622 1985.2793 1982.7796 1980.6424 1978.1798 1976.3609 1973.8307 1971.8161 1969.5949 1967.4491 1965.1424 1962.6273 1960.8356 1958.4117 1956.1259 1953.9223 1951.7465 1949.3661 1947.2028 1945.1218 1942.7692 1940.8480 1938.5546 1936.3882 1933.7040 1931.6659 1929.3587 1927.3501 1925.1997 1922.6283 1920.5673 1918.4587 1915.9091 1913.9535 1911.9488 1909.6574 1907.0589 1904.8232 1903.0230 1900.6797 1898.5414 1896.2488 1893.7559 1891.9285 1889.6750 1887.4944 1885.0271 1882.5903 1880.4141 1878.4866 1876.0711 1873.9207 1871.5395 1869.3942 1867.1814 1865.1550 1862.8457 1860.6583 1858.4729 1855.9038 1853.7154 1851.8580 1849.5405 1847.3424 1845.1824 1842.6531 1840.7401 1838.3166 1836.0220 1833.8959 1831.6501 1829.6412 1827.0995 1825.1477 1822.5542 1820.6126 1818.3584 1816.0856 1813.6568 1811.7862 1809.5913 1807.3382 1805.0255 1802.8614 1800.3712 1798.2570 1796.3217 1793.8090 1791.8295 1789.5844 1787.4017 1784.7675 1782.8056 1780.5686 1778.0579 1775.9140 1773.7954 1771.5274 1769.5597 1767.2892 1765.1260 1762.5897 1760.4986 1758.3678 1756.0289 1754.0572 1751.3854 1749.1987 1747.0899 1744.7612 1742.7906 1740.7312 1738.3666 1736.0315 1733.6162 1731.4401 1729.5657 1727.1714 1724.9349 1722.6958 1720.3454 1718.3738 1715.9966 1713.7499 1711.7955 1709.2050 1707.1143 1704.6896 1702.5825 1700.6871 1698.4102 1696.0093 1693.9729 1691.5216 1691.3797 1693.7653 1696.1190 1698.4464 1700.3626 1702.8978 1705.0687 1707.0871 1709.2465 1711.8278 1713.5568 1716.2350 1718.3543 1720.2777 1722.5282 1724.8705 1727.0008 1729.2665 1731.6077 1733.8770 1735.9617 1738.3832 1740.3703 1742.5855 1745.0626 1747.2076 1749.4220 1751.6681 1753.8567 1756.2295 1758.2357 1760.6445 1762.6820 1765.0522 1767.3178 1769.3923 1771.4442 1774.0002 1776.0005 1778.5120 1780.7218 1782.5272 1785.1419 1786.9717 1789.5434 1791.7271 1793.7223 1796.0112 1798.4327 1800.5836 1802.9203 1805.0640 1807.0289 1809.5003 1811.5636 1814.0861 1816.3347 1818.3127 1820.7030 1822.8341 1824.8570 1827.0293 1829.2844 1831.8086 1833.9780 1835.9836 1838.1624 1840.4435 1842.8099 1844.8730 1847.4675 1849.5282 1851.8699 1854.0277 1856.0596 1858.5306 1860.5489 1862.8615 1865.0606 1867.4442 1869.5886 1871.4942 1873.8159 1875.9512 1878.1131 1880.5715 1882.7167 1885.0564 1887.1759 1889.5184 1891.9063 1893.8478 1895.9121 1898.5818 1900.5468 1902.8848 1905.1183 1907.2625 1909.4604 1911.9453 1913.7242 1916.0121 1918.3662 1920.4935 1922.8469 1925.2972 1927.0432 1929.4141 1931.5239 1934.0202 1936.1292 1938.5017 1940.5183 1942.6800 1945.2202 1947.4779 1949.2676 1951.7527 1953.8584 1956.4159 1958.5857 1960.7102 1962.6433 1965.2478 1967.3764 1969.5197 1971.5698 1973.7545 1976.2394 1978.2158 1980.7859 1982.7220 1984.9510 1987.2761 1989.5672 1991.6323 1994.1592 1996.0490 1998.3842 2000.5501 2002.6535 2005.1446 2007.1035 2009.6818 2011.6081 2013.8679 2016.3409 2018.6029 2020.6726 2022.8743 2024.9749 2027.3947 2029.4020 2031.9882 2034.1034 2036.1834
2003.3243 2000.8425 1999.0030 1996.8252 1994.2823 1992.0327 1990.1368 1987.8340 1985.4842 1983.0807 1980.8825 1978.6530 1976.7036 1974.4450 1972.1150 1969.9440 1967.5935 1965.6747 1963.1047 1960.9083 1958.7591 1956.6777 1954.1961 1951.8829 1949.7578 1947.5554 1945.4229 1943.3379 1941.0036 1938.6097 1936.4451 1934.2428 1931.9262 1929.9927 1927.6647 1925.5357 1922.9568 1920.8599 1918.7389 1916.5901 1914.1710 1912.2286 1909.9667 1907.4496 1905.3856 1902.8983 1900.8526 1898.8367 1896.5406 1893.9579 1891.9053 1889.8459 1887.4191 1885.1480 1883.0009 1880.9849 1878.6534 1876.1590 1874.2907 1872.0191 1869.6832 1867.3915 1865.4950 1863.1171 1861.0362 1858.7240 1856.4971 1854.2027 1851.7529 1849.6737 1847.4880 1845.3227 1843.1281 1840.5759 1838.6405 1836.0489 1833.8910 1831.8342 1829.3916 1827.2262 1825.1929 1823.1782 1820.6693 1818.5441 1816.2913 1813.9105 1811.9781 1809.4267 1807.1029 1805.3519 1802.9921 1800.5556 1798.3876 1796.0489 1793.8963 1791.5880 1789.3052 1787.2414 1784.8945 1783.0909 1780.5138 1778.3121 1776.2871 1774.0682 1771.5924 1769.3217 1767.4163 1765.1200 1762.8374 1760.4991 1758.4593 1756.1625 1753.9774 1751.4216 1749.2242 1747.3886 1744.8033 1742.6058 1740.6825 1738.2901 1735.9231 1733.9819 1731.7351 1729.1529 1726.9361 1724.8216 1722.7543 1720.2864 1718.4304 1715.8612 1713.9055 1711.3891 1709.1741 1706.9669 1704.7242 1702.6221 1700.5897 1698.4647 1696.0417 1693.5854 1691.5845 1689.0951 1689.1614 1691.6761 1693.7908 1696.1020 1698.2488 1700.5963 1702.7560 1704.6922 1707.0356 1709.5983 1711.7104 1713.8158 1716.2841 1718.2222 1720.2488 1722.9696 1725.1074 1727.0073 1729.5800 1731.8256 1733.9359 1735.9613 1738.2744 1740.5324 1742.7136 1745.1298 1747.4146 1749.5169 1751.9006 1753.9994 1756.0222 1758.1411 1760.6593 1762.6733 1764.9822 1767.0271 1769.4622 1771.7379 1773.8421 1775.9735 1778.2473 1780.6879 1782.7576 1785.2764 1787.4935 1789.6471 1791.7873 1794.1360 1796.1166 1798.2709 1800.7469 1802.8570 1805.3454 1807.1313 1809.5957 1811.8006 1813.8947 1816.1761 1818.6179 1820.6442 1822.9586 1825.3916 1827.4196 1829.6303 1831.7836 1834.2281 1836.5217 1838.4754 1840.9667 1842.9725 1845.3193 1847.3954 1849.8379 1852.0472 1853.9240 1856.5648 1858.4644 1861.0027 1862.9770 1865.3229 1867.3888 1869.7423 1872.0783 1874.0692 1876.3444 1878.6396 1880.9514 1882.8198 1885.3146 1887.5574 1889.8442 1891.7692 1894.1658 1896.6230 1898.7248 1900.9043 1903.1427 1905.4524 1907.5123 1909.5627 1912.2588 1914.4267 1916.4554 1918.6761 1921.1615 1923.3288 1925.5278 1927.8422 1929.7244 1932.1587 1934.3644 1936.3273 1938.6371 1940.8809 1943.2538 1945.1947 1947.7618 1950.0495 1952.2132 1954.5446 1956.3680 1958.5880 1961.0958 1963.1956 1965.2168 1967.4849 1969.7389 1972.3261 1974.5406 1976.6408 1978.7864 1980.8077 1983.2531 1985.6616 1987.7941 1989.7313 1992.1388 1994.5456 1996.8115 1998.9882 2000.8727 2003.5336 2005.4271 2007.8063 2010.1057 2012.0884 2014.6457 2016.8021 2018.7281 2021.3659 2023.5619 2025.6237 2027.6162 2030.0150 2032.3074 2034.7303
2001.7231 1999.1239 1997.0550 1995.0413 1992.6385 1990.2793 1988.0983 1986.0817 1983.8918 1981.6620 1979.4380 1977.2438 1974.5634 1972.3911 1970.3833 1968.1879 1965.6281 1963.5234 1961.1894 1959.2612 1956.9026 1954.4635 1952.5631 1950.1575 1947.8226 1945.7773 1943.7776 1941.1764 1939.2971 1937.0266 1934.4200 1932.2191 1930.0774 1927.8122 1925.6875 1923.4740 1921.0489 1919.0402 1916.6838 1914.5029 1912.3575 1909.8606 1907.6697 1905.5029 1903.2980 1900.9632 1898.7543 1896.4980 1894.5904 1892.4177 1890.2539 1887.8276 1885.3488 1883.3849 1881.1765 1878.8642 1876.7865 1874.6175 1872.1728 1869.7053 1867.6454 1865.3222 1863.0267 1860.8309 1858.8042 1856.4818 1854.3382 1852.2600 1849.8331 1847.6497 1845.2683 1843.2352 1841.0585 1838.6981 1836.7200 1834.2842 1831.8354 1829.7073 1827.4869 1825.4813 1823.1220 1821.0710 1818.5318 1816.5583 1814.2398 1811.9405 1809.5976 1807.2838 1805.4175 1803.1542 1800.9959 1798.6996 1796.2120 1793.9110 1791.7436 1789.5090 1787.4235 1785.1833 1783.0081 1780.6216 1778.5217 1776.3820 1774.0074 1771.7577 1769.8078 1767.2239 1765.3552 1762.9291 1760.7286 1758.3886 1756.4276 1753.9422 1751.8501 1749.5397 1747.4847 1745.0395 1743.0504 1740.5947 1738.5061 1736.1523 1733.9991 1731.5780 1729.5546 1726.9920 1724.9074 1722.6627 1720.6513 1718.4451 1716.0820 1713.6470 1711.6717 1709.3390 1707.0248 1704.9141 1702.9170 1700.2715 1698.3507 1695.8642 1693.7914 1691.6506 1689.4202 1686.8565 1687.1812 1689.3413 1691.5495 1693.8662 1695.8162 1698.3558 1700.4579 1702.6070 1704.7538 1706.9337 1709.5003 1711.8419 1713.7476 1716.2988 1718.3874 1720.7200 1722.8419 1724.8970 1727.1641 1729.4330 1731.8782 1733.8450 1735.9093 1738.3652 1740.7368 1742.8696 1745.1511 1747.3281 1749.6900 1751.6163 1753.7362 1756.1343 1758.3356 1760.8953 1762.6798 1764.9053 1767.5151 1769.5975 1771.9340 1773.8187 1776.3287 1778.4320 1780.5697 1783.1509 1784.9884 1787.5530 1789.6110 1792.0719 1794.1847 1796.5154 1798.4839 1801.0221 1802.8596 1805.4469 1807.2917 1809.5321 1812.1431 1814.2381 1816.2832 1818.6381 1821.0152 1823.1246 1825.5037 1827.4199 1829.6382 1832.1093 1834.1928 1836.7253 1838.4796 1840.9113 1843.0040 1845.4400 1847.5830 1849.8483 1852.3509 1854.5811 1856.5625 1859.0307 1860.9060 1863.2619 1865.3414 1867.5847 1869.8176 1872.3975 1874.4718 1876.3966 1879.0953 1880.9984 1883.5673 1885.6851 1887.8226 1890.1242 1892.1634 1894.3227 1896.6150 1899.1291 1901.0832 1903.2881 1905.7323 1908.0971 1910.0197 1912.1633 1914.6619 1916.5843 1919.0742 1921.3372 1923.5066 1925.5853 1927.9390 1930.3831 1932.2716 1934.7994 1936.7105 1939.0498 1941.4719 1943.3410 1945.8157 1948.1052 1950.4251 1952.2960 1954.6017 1957.1378 1959.3754 1961.3426 1963.7494 1965.9643 1968.1885 1970.4049 1972.3647 1974.9687 1976.9754 1979.0360 1981.2529 1983.4632 1985.7453 1987.9363 1990.2199 1992.6181 1994.8524 1997.1866 1999.1282 2001.2905 2003.8267 2006.0269 2008.3676 2010.2673 2012.4810 2014.9843 2016.9943 2019.1532 2021.7665 2023.6912 2026.0313 2028.0930 2030.4773 2032.5937
1999.9992 1997.4678 1995.2835 1992.8451 1990.6573 1988.7304 1986.2666 1984.3466 1981.7300 1979.6144 1977.3683 1975.0691 1972.7593 1970.6471 1968.3870 1966.3274 1963.9898 1961.9256 1959.4436 1957.1814 1954.9238 1952.6128 1950.6608 1948.1499 1946.3291 1944.1171 1941.6947 1939.2904 1937.2623 1935.2076 1932.7188 1930.4322 1928.4366 1925.8352 1923.8978 1921.5309 1919.2170 1917.3273 1914.6442 1912.7964 1910.2636 1908.0888 1905.8126 1903.5713 1901.4431 1899.3859 1896.9129 1894.7999 1892.6944 1890.3657 1888.1242 1885.9283 1883.8234 1881.2123 1879.3372 1877.1229 1874.5716 1872.4119 1870.0679 1867.8545 1865.9266 1863.4720 1861.0964 1859.1620 1856.8443 1854.6251 1852.5074 1849.9424 1848.0817 1845.6339 1843.3360 1841.2797 1838.7403 1836.6211 1834.4910 1832.2436 1829.9386 1827.7858 1825.5350 1823.4251 1820.8998 1818.6128 1816.3549 1814.4967 1812.1108 1810.1175 1807.4698 1805.4201 1803.1989 1800.9628 1798.5682 1796.4373 1794.0393 1791.9521 1789.8051 1787.5801 1785.2224 1783.1784 1781.0486 1778.8608 1776.2337 1774.2355 1771.8712 1769.5319 1767.5210 1765.1929 1763.0867 1760.7533 1758.6320 1756.3713 1754.0414 1751.5807 1749.3430 1747.1839 1744.8987 1742.9943 1740.5250 1738.4664 1736.2445 1733.9541 1731.4952 1729.5760 1727.2745 1724.8958 1722.6251 1720.5286 1718.2495 1715.9688 1713.6831 1711.7829 1709.2195 1707.2712 1705.0332 1702.7811 1700.6868 1698.0357 1695.7862 1693.7702 1691.7393 1689.2872 1686.8797 1685.0486 1684.6642 1687.0964 1689.4854 1691.4798 1693.7125 1695.8731 1698.2274 1700.4368 1702.7223 1704.8317 1707.2994 1709.1489 1711.7264 1713.5965 1716.2651 1718.5595 1720.6058 1722.7685 1724.9480 1727.1027 1729.7136 1731.8755 1733.8516 1736.2970 1738.1887 1740.8825 1742.9973 1744.9642 1747.5647 1749.5345 1751.8420 1754.1317 1756.3485 1758.6549 1760.8348 1762.9004 1765.2908 1767.3699 1769.5849 1772.0780 1774.1787 1776.1765 1778.5913 1780.6273 1783.1901 1785.1284 1787.8018 1789.6113 1792.1161 1794.4584 1796.3053 1798.8324 1801.1316 1803.0895 1805.4767 1807.7741 1810.0196 1812.2364 1814.5835 1816.7863 1819.0351 1820.8450 1823.3354 1825.3950 1827.8526 1830.2389 1832.1879 1834.4089 1836.6310 1838.9848 1841.1770 1843.3641 1845.5862 1847.9401 1850.2832 1852.2290 1854.5076 1856.6024 1859.2432 1861.0703 1863.7192 1865.6517 1868.1112 1870.1418 1872.4219 1874.7243 1876.7540 1879.0607 1881.4510 1883.6133 1885.6567 1888.1827 1890.1975 1892.7218 1894.6445 1897.1925 1899.2181 1901.2951 1903.6006 1905.7977 1908.3029 1910.5072 1912.6950 1914.6899 1917.2984 1919.4017 1921.4448 1923.9965 1925.8076 1928.3133 1930.5717 1932.5438 1934.9157 1937.0854 1939.6726 1941.5935 1944.0841 1946.3372 1948.5703 1950.3904 1952.9914 1955.3126 1957.3861 1959.7668 1961.5681 1964.2205 1966.4528 1968.4850 1970.6519 1972.9724 1974.9528 1977.2794 1979.7343 1982.0924 1984.0796 1986.3993 1988.4313 1990.8413 1992.8383 1995.4594 1997.6449 1999.6186 2001.7372 2004.1571 2006.5817 2008.5833 2011.1074 2013.3087 2015.5930 2017.4314 2020.0509 2022.0001 2024.1637 2026.4290 2029.0064 2031.2609
1997.8350 1995.4854 1993.7070 1991.4778 1989.2065 1986.8989 1984.7617 1982.2538 1980.1055 1977.9533 1975.3548 1973.4743 1971.1157 1968.9040 1966.8671 1964.5844 1962.2478 1959.9894 1957.5634 1955.5535 1953.4250 1950.8958 1948.9541 1946.6740 1944.3011 1941.7996 1939.7119 1937.4553 1935.3710 1933.0463 1930.9534 1928.3768 1926.2844 1924.2945 1922.1249 1919.4671 1917.6806 1915.1294 1913.1887 1910.5395 1908.5940 1906.3631 1903.8063 1901.9551 1899.6195 1897.3453 1895.0591 1892.7751 1890.7291 1888.4183 1886.2164 1883.8230 1881.8088 1879.3313 1876.9552 1875.1650 1872.4583 1870.4707 1868.0724 1866.1351 1863.7124 1861.5749 1859.4497 1856.8451 1854.6262 1852.8136 1850.4986 1847.9154 1845.7417 1843.4584 1841.4977 1839.1843 1836.9740 1834.5227 1832.4480 1830.2746 1827.7528 1825.5968 1823.2458 1821.2264 1818.8076 1816.8737 1814.4596 1812.1615 1809.9020 1808.0748 1805.6687 1803.2440 1801.2686 1798.9658 1796.7782 1794.3756 1791.9586 1789.9700 1787.6024 1785.3527 1783.0027 1780.9630 1778.6403 1776.6616 1774.2752 1771.7877 1769.8419 1767.6846 1765.0824 1762.8454 1760.9843 1758.8169 1756.5765 1754.3797 1751.8381 1749.5923 1747.2346 1745.1900 1743.1183 1740.4838 1738.5776 1736.3254 1733.9282 1731.5306 1729.5041 1727.4736 1725.0130 1722.8906 1720.6184 1718.4529 1716.3580 1714.0045 1711.6032 1709.2099 1706.9695 1704.9083 1702.7160 1700.4897 1698.0032 1696.0253 1693.8857 1691.3170 1689.4043 1686.9939 1684.7208 1682.5891 1682.3704 1684.5593 1686.9057 1689.4964 1691.3444 1693.5419 1696.0016 1698.0711 1700.4944 1702.8669 1705.1627 1707.3661 1709.3209 1711.4275 1713.8163 1715.9126 1718.4676 1720.6728 1722.7837 1724.8342 1727.4503 1729.4354 1731.5719 1733.8013 1736.1094 1738.4442 1740.4806 1742.9473 1745.3366 1747.3824 1749.4201 1752.0094 1754.0329 1756.2283 1758.3881 1760.7973 1763.1175 1765.3505 1767.5012 1769.7146 1771.8449 1774.5110 1776.5383 1778.8475 1781.1370 1783.2372 1785.4113 1787.5547 1789.9425 1792.0828 1794.3283 1796.6919 1799.0659 1801.3532 1803.3300 1805.4754 1807.6166 1809.8919 1812.4146 1814.6883 1816.9823 1818.9507 1821.0885 1823.5236 1825.5418 1828.1336 1830.3139 1832.4865 1834.8359 1837.0819 1839.2114 1841.1634 1843.8145 1846.0679 1848.1183 1850.4237 1852.3614 1855.0322 1857.0069 1859.1104 1861.3572 1863.6393 1865.9152 1868.2379 1870.6923 1872.9090 1874.7062 1877.3058 1879.3117 1881.5259 1883.8042 1886.0725 1888.2667 1890.8022 1892.8645 1894.9890 1897.4528 1899.6927 1901.7799 1903.9011 1906.0887 1908.5830 1910.9133 1913.1269 1915.1541 1917.2907 1919.6490 1921.8580 1924.1839 1926.5583 1928.8485 1930.6429 1933.2578 1935.2971 1937.4365 1939.8852 1941.9294 1944.0562 1946.6049 1949.0012 1950.8936 1953.3275 1955.4006 1957.8532 1960.0956 1962.1840 1964.4292 1966.8665 1968.9187 1971.1923 1973.3268 1975.6012 1978.0728 1979.9144 1982.3933 1984.5624 1987.0364 1988.9958 1991.3123 1993.4286 1995.7909 1997.8955 2000.3455 2002.3553 2004.5167 2006.6914 2009.0728 2011.1776 2013.4245 2016.1033 2018.0360 2020.3634 2022.7362 2024.6385 2026.8729 2029.1368
1996.2586 1993.7594 1991.7377 1989.6218 1987.3395 1984.7607 1982.5406 1980.6081 1978.1537 1975.7806 1973.5536 1971.3482 1969.4830 1967.3154 1964.6432 1962.7625 1960.3484 1957.9293 1955.6772 1953.7918 1951.5724 1949.3713 1946.7248 1944.4373 1942.4305 1939.9824 1938.0817 1935.6271 1933.2164 1931.1408 1929.0013 1926.8455 1924.3901 1922.2345 1919.7854 1917.8851 1915.4706 1913.2942 1910.8332 1908.5941 1906.7923 1904.2024 1902.0309 1899.8859 1897.6097 1895.3456 1893.0694 1890.7786 1888.7119 1886.2547 1884.2068 1882.0876 1879.9106 1877.2415 1875.3816 1873.1600 1870.6915 1868.4929 1866.2541 1864.2407 1861.9401 1859.5777 1857.3770 1855.1419 1852.9126 1850.7265 1848.1997 1845.8468 1843.9972 1841.4341 1839.2736 1837.0914 1834.6601 1832.4943 1830.1827 1828.2399 1825.7544 1823.8518 1821.4464 1819.0337 1817.0136 1814.6819 1812.5446 1810.4563 1808.2189 1805.8206 1803.6614 1801.3602 1799.1337 1796.8854 1794.4496 1792.2612 1789.8294 1788.0648 1785.7536 1783.5268 1781.3376 1778.6515 1776.6866 1774.3435 1771.9244 1769.7565 1767.6321 1765.2966 1763.4063 1761.1161 1758.5067 1756.3344 1754.3471 1752.0605 1749.9004 1747.7142 1745.4089 1743.0223 1741.0378 1738.6197 1736.0657 1733.9534 1731.8582 1729.6348 1727.1067 1724.9891 1723.0439 1720.4908 1718.1445 1716.3840 1714.0398 1711.7023 1709.5357 1706.9948 1704.8858 1702.8600 1700.6374 1698.4550 1696.0629 1693.8612 1691.6940 1689.3563 1686.8027 1684.7107 1682.4103 1680.3532 1680.1669 1682.5424 1684.6799 1687.0232 1689.3952 1691.2581 1693.7425 1696.0970 1698.4718 1700.5037 1702.7601 1704.7346 1707.1268 1709.5824 1711.5998 1713.6797 1715.9565 1718.5734 1720.4031 1722.8077 1725.2814 1727.2190 1729.7459 1731.7123 1734.2930 1736.1018 1738.7672 1740.7901 1742.8641 1745.2669 1747.7323 1749.7930 1752.2006 1754.2922 1756.3702 1758.5027 1760.7946 1763.2687 1765.6136 1767.5207 1769.8979 1772.3329 1774.1692 1776.7472 1778.9223 1781.2563 1783.3250 1785.4030 1787.6732 1790.0805 1792.1098 1794.6733 1797.0148 1799.0225 1801.3453 1803.4094 1805.5489 1808.0376 1810.2029 1812.6682 1814.8759 1816.7366 1819.2982 1821.6381 1823.9112 1826.0014 1828.3212 1830.4216 1832.5688 1835.0700 1836.8866 1839.3611 1841.7164 1843.7754 1846.0460 1848.1720 1850.6770 1852.9415 1854.9832 1857.5384 1859.3544 1861.7805 1863.7812 1866.0139 1868.6582 1870.5620 1872.8738 1875.3581 1877.5968 1879.7466 1881.8173 1884.2361 1886.5855 1888.4657 1891.0647 1893.1277 1895.3906 1897.4790 1899.9018 1901.9641 1904.1712 1906.5989 1908.8839 1910.9521 1913.5019 1915.4271 1917.7574 1919.9538 1922.1920 1924.6580 1926.9635 1929.2038 1931.0678 1933.4509 1935.8400 1937.9960 1940.2356 1942.3281 1944.6136 1946.7951 1949.3159 1951.4786 1953.6167 1955.6900 1958.1528 1960.5783 1962.3594 1964.8625 1966.9538 1969.2495 1971.3814 1973.9257 1975.9847 1978.4790 1980.6985 1982.7630 1985.0261 1987.3335 1989.5872 1991.9156 1993.7192 1996.2210 1998.6360 2000.4932 2002.8257 2005.0363 2007.3158 2009.4758 2011.7297 2013.9077 2016.3664 2018.3882 2020.8997 2022.9962 2025.5115 2027.5394
1994.2892 1992.3695 1990.1391 1987.7618 1985.1996 1983.0058 1980.7793 1978.8700 1976.2745 1974.4548 1971.7826 1969.9562 1967.5275 1965.2516 1963.1519 1960.6957 1958.6294 1956.0437 1953.8543 1951.7154 1949.5926 1947.5133 1944.9858 1942.7079 1940.5977 1938.2621 1935.9929 1934.0238 1931.8310 1929.2145 1927.2557 1924.6955 1922.6921 1920.4837 1918.0415 1915.9755 1913.7836 1911.2873 1909.1801 1907.1378 1904.8316 1902.3105 1900.1219 1898.0517 1895.8883 1893.4670 1891.2796 1889.0401 1886.6139 1884.5550 1882.2351 1879.7938 1877.7527 1875.7083 1873.4714 1871.1219 1868.5838 1866.4182 1864.1727 1861.9645 1859.5412 1857.7466 1855.4980 1853.2931 1851.0513 1848.6867 1846.2843 1844.1938 1841.8304 1839.7910 1837.2897 1835.1760 1832.9038 1830.4448 1828.3668 1826.0964 1823.8655 1821.4079 1819.2486 1817.2933 1814.7938 1812.6088 1810.3260 1808.3045 1805.8816 1803.5330 1801.4353 1799.0421 1796.9039 1794.6220 1792.3799 1790.3725 1788.0865 1785.9858 1783.6018 1781.2475 1779.0106 1776.7908 1774.4656 1772.3515 1769.9694 1767.9496 1765.5195 1763.5148 1760.9780 1758.9855 1756.3494 1754.1579 1752.3348 1749.8450 1747.4380 1745.5750 1743.2270 1740.8288 1738.8302 1736.5295 1733.9057 1731.9829 1729.5415 1727.4665 1725.0797 1723.1641 1720.7083 1718.5386 1716.2647 1713.9697 1711.6575 1709.2953 1707.0877 1705.0736 1702.5106 1700.3107 1698.4361 1695.9287 1693.6788 1691.6375 1689.4680 1686.8625 1684.6007 1682.7139 1680.2954 1678.2456 1678.0356 1680.1487 1682.7540 1684.5634 1686.8764 1689.2611 1691.3420 1693.6117 1695.7579 1698.2534 1700.4279 1702.8924 1705.1018 1707.4044 1709.3900 1711.5828 1713.7823 1715.9571 1718.6007 1720.5114 1723.0636 1725.2649 1727.2326 1729.5357 1732.1393 1734.0045 1736.2863 1738.4846 1740.6393 1743.0497 1745.1783 1747.6439 1749.9651 1752.0611 1754.4102 1756.3854 1758.8343 1761.1742 1763.1237 1765.4736 1768.0205 1769.8471 1772.2164 1774.5548 1776.9771 1778.8457 1781.1749 1783.4083 1785.7353 1788.1029 1790.2077 1792.2807 1794.8509 1796.9002 1799.3609 1801.3463 1803.9407 1806.1683 1808.0021 1810.2327 1812.4675 1814.9058 1816.9628 1819.2554 1821.7250 1823.7962 1826.0360 1828.3624 1830.7358 1832.8369 1835.0880 1837.5591 1839.4636 1841.8596 1844.3198 1846.2424 1848.6220 1850.7750 1852.8910 1855.4160 1857.3061 1859.9365 1861.9302 1864.4541 1866.2801 1868.5653 1871.0531 1873.1652 1875.5924 1877.6565 1880.1538 1882.3566 1884.6904 1886.7594 1888.7625 1891.2629 1893.2915 1895.5141 1898.1465 1900.2336 1902.5759 1904.7576 1906.6959 1908.9036 1911.4931 1913.5747 1916.1154 1918.2127 1920.4419 1922.5031 1924.9431 1927.2965 1929.1991 1931.5676 1934.0638 1936.0440 1938.1001 1940.5243 1942.9825 1944.8107 1947.2738 1949.4000 1951.6545 1954.1855 1956.2784 1958.6533 1960.8604 1962.7719 1965.0640 1967.5450 1969.9384 1971.8710 1974.0372 1976.3439 1978.6905 1981.0670 1983.0860 1985.4047 1987.7081 1990.0516 1992.0260 1994.3659 1996.6628 1998.9199 2001.1469 2003.3288 2005.4029 2007.6571 2009.9839 2012.4040 2014.7481 2016.8295 2019.2618 2021.1219 2023.7123 2026.0640
1992.7150 1990.5720 1987.8912 1985.8367 1983.7390 1981.3413 1979.2673 1976.8176 1974.7927 1972.6283 1969.9641 1967.7055 1965.4548 1963.6543 1961.3771 1959.0586 1956.6500 1954.4930 1952.1385 1949.9294 1947.8643 1945.3569 1943.2025 1940.7044 1938.4674 1936.3766 1934.3119 1932.1220 1929.7362 1927.4189 1925.0998 1922.8057 1920.5177 1918.3717 1916.0504 1914.1414 1911.6171 1909.3327 1906.9953 1905.1837 1902.7494 1900.2990 1898.1869 1896.1399 1893.5575 1891.6175 1889.3756 1886.8354 1884.6975 1882.3059 1880.1353 1878.1707 1875.9711 1873.6941 1871.5026 1868.9291 1866.9766 1864.4701 1862.4208 1860.2066 1857.6159 1855.6890 1853.1029 1851.2215 1848.7145 1846.4261 1844.3250 1842.2521 1839.8011 1837.4403 1835.4051 1832.9533 1831.0495 1828.5579 1826.5094 1823.9560 1821.6311 1819.7124 1817.1395 1814.9242 1812.7819 1810.7069 1808.5682 1806.0197 1803.7787 1801.8218 1799.2104 1797.1203 1794.7819 1792.5964 1790.5262 1787.8979 1785.9159 1783.8660 1781.4386 1779.2830 1776.6636 1774.5003 1772.1698 1770.0246 1768.1551 1765.5151 1763.2443 1761.2357 1758.8290 1756.8792 1754.5266 1752.2507 1750.0090 1747.7186 1745.4003 1743.0100 1740.7349 1738.8264 1736.3150 1734.1987 1732.0723 1729.7001 1727.4586 1725.0573 1723.0764 1720.8866 1718.3986 1716.4725 1714.0393 1711.5686 1709.6284 1707.2074 1705.1851 1702.9433 1700.3563 1698.0185 1695.9872 1693.9310 1691.3007 1689.0553 1687.1522 1684.9076 1682.7120 1680.3903 1677.9983 1675.9845 1675.8846 1678.2768 1680.2027 1682.5025 1684.6679 1686.8766 1689.1999 1691.7056 1693.8597 1696.0579 1698.1606 1700.4061 1702.6779 1704.9572 1707.3367 1709.4689 1711.9727 1714.0595 1716.3081 1718.4897 1720.8104 1722.8067 1725.3284 1727.6162 1729.5198 1731.8753 1734.2211 1736.2918 1738.7192 1740.8099 1743.3661 1745.2426 1747.5204 1749.9900 1752.4333 1754.2161 1756.8187 1758.8804 1761.0572 1763.6250 1765.8699 1767.9563 1770.3420 1772.5155 1774.5471 1776.9904 1779.3409 1781.2636 1783.7145 1785.6983 1788.1207 1790.4856 1792.5391 1794.7061 1797.3670 1799.1600 1801.6476 1803.9148 1806.3545 1808.2007 1810.4231 1812.9346 1815.0480 1817.1671 1819.8238 1822.0714 1824.2816 1826.1863 1828.6781 1831.0384 1833.0680 1835.2711 1837.4695 1839.8252 1841.9678 1844.0823 1846.6269 1848.7941 1851.0122 1853.1742 1855.7878 1857.6114 1859.9749 1862.2334 1864.7571 1866.7531 1869.2809 1871.4801 1873.6500 1875.7475 1877.8470 1880.2744 1882.4650 1884.9243 1886.7829 1889.4031 1891.3662 1893.9258 1896.0129 1898.4522 1900.3475 1902.8473 1905.1372 1907.1001 1909.4014 1911.7084 1914.1242 1916.4019 1918.4193 1920.8202 1922.8929 1925.1068 1927.6101 1929.6515 1932.1128 1934.3234 1936.5091 1938.5912 1940.9299 1942.9884 1945.5452 1947.9364 1949.7787 1952.0085 1954.5542 1956.8241 1959.0303 1961.0145 1963.1731 1965.6772 1967.6792 1970.2779 1972.4874 1974.7210 1976.7436 1979.0076 1981.5731 1983.7089 1985.6764 1988.2786 1990.3964 1992.7592 1994.6451 1997.0330 1999.3641 2001.6311 2004.0615 2005.9721 2008.1955 2010.5544 2012.7381 2015.1753 2017.0981 2019.4656 2021.8243 2023.9810
1990.9467 1988.5294 1986.3167 1984.1841 1982.0342 1979.6719 1977.1904 1975.1518 1972.9193 1970.6129 1968.1452 1966.2475 1964.0092 1961.5871 1959.4149 1956.9016 1954.6002 1952.5973 1950.2060 1948.1591 1945.7148 1943.5613 1941.1618 1939.2705 1936.7626 1934.3639 1932.1800 1930.1345 1927.6957 1925.6844 1923.0855 1921.1901 1918.6593 1916.5789 1914.2036 1912.2129 1909.6148 1907.4856 1905.3700 1903.3107 1900.9566 1898.6089 1896.1952 1894.0395 1892.0668 1889.7319 1887.2720 1885.1847 1882.6748 1880.5158 1878.5200 1876.0267 1873.7529 1871.7527 1869.5494 1867.0037 1864.9438 1862.4633 1860.2505 1858.0149 1855.8896 1853.3888 1851.0904 1848.9018 1846.7510 1844.3203 1842.5114 1840.2662 1837.8132 1835.4060 1833.3195 1831.1798 1828.7310 1826.6407 1824.3660 1822.2390 1819.9572 1817.3994 1815.4259 1813.1880 1810.7370 1808.3293 1806.0796 1804.2320 1801.7303 1799.7117 1797.2853 1795.2685 1792.8521 1790.7178 1788.3690 1785.8385 1784.0538 1781.3498 1779.1313 1777.1861 1774.7451 1772.5751 1770.2357 1767.8626 1765.5806 1763.6933 1761.0822 1758.9632 1756.7927 1754.5327 1752.4986 1750.2828 1748.0173 1745.3077 1743.1064 1741.1994 1738.8147 1736.3901 1734.4114 1732.2077 1729.6861 1727.7895 1725.5061 1723.1689 1720.6652 1718.4195 1716.4805 1714.1302 1711.8049 1709.5509 1707.4853 1705.0797 1702.9307 1700.3484 1698.2879 1695.7986 1693.9648 1691.7021 1689.5285 1686.9285 1684.9950 1682.6415 1680.2824 1678.2303 1675.8719 1673.5466 1673.4776 1675.5838 1678.1195 1680.0576 1682.3558 1684.9790 1687.2651 1689.3236 1691.5965 1693.9574 1696.0999 1698.3726 1700.4067 1702.9102 1704.8710 1707.3350 1709.4745 1711.7857 1713.9764 1716.1624 1718.7303 1720.7088 1723.2183 1725.5229 1727.7427 1729.6485 1732.2971 1734.5114 1736.7792 1738.7497 1740.9610 1743.0693 1745.6574 1747.8540 1749.9606 1752.1894 1754.6751 1756.6038 1759.1473 1761.3074 1763.5993 1765.8808 1767.8932 1770.0740 1772.3660 1774.9277 1776.9624 1779.5443 1781.5998 1783.8911 1786.2661 1788.5434 1790.5974 1792.5683 1794.9731 1797.1550 1799.4687 1801.5732 1803.9292 1806.5386 1808.7928 1810.8683 1813.0450 1815.3184 1817.4812 1819.8125 1822.2688 1824.2224 1826.6481 1828.6278 1831.0555 1833.3115 1835.4692 1838.0500 1840.2983 1842.2556 1844.5101 1846.7553 1849.1045 1851.3330 1853.4962 1855.7948 1858.2731 1860.1879 1862.5809 1864.7180 1866.9037 1869.2708 1871.5800 1874.0664 1875.9411 1878.3298 1880.5470 1882.6727 1885.0675 1887.5344 1889.5229 1891.8892 1894.0101 1896.1065 1898.5847 1900.5996 1903.3050 1905.5554 1907.6441 1909.9310 1912.3054 1914.1482 1916.7495 1918.8709 1920.8823 1923.1773 1925.7645 1927.6779 1930.1590 1932.2047 1934.7359 1936.6682 1939.1866 1941.2394 1943.8161 1945.7008 1948.3088 1950.2944 1952.5866 1954.6056 1956.8964 1959.3487 1961.3666 1963.9569 1966.1500 1968.2949 1970.6915 1972.6091 1974.9704 1977.3408 1979.4656 1981.7433 1983.9330 1986.4543 1988.5738 1990.6773 1993.1676 1995.3475 1997.6828 1999.6856 2002.0952 2004.5379 2006.3819 2008.7436 2011.2780 2013.3990 2015.7863 2017.6338 2019.9838 2022.2283
1988.9768 1986.8960 1984.3392 1982.2369 1980.0054 1977.5969 1975.5119 1973.1472 1971.2183 1968.6542 1966.7647 1964.2979 1962.0504 1959.9901 1957.7402 1955.4026 1952.8206 1950.5506 1948.6270 1946.3381 1944.1791 1941.9858 1939.2891 1937.3358 1934.7506 1932.5242 1930.2739 1928.2476 1925.9394 1923.8470 1921.6681 1919.1543 1916.8186 1914.9294 1912.5428 1909.9752 1907.6973 1905.5278 1903.4588 1901.1954 1899.0570 1896.7142 1894.1919 1892.1761 1889.7795 1887.7647 1885.6012 1883.2377 1880.7013 1878.7865 1876.2240 1874.3693 1871.8498 1869.6239 1867.2332 1864.9743 1863.0228 1860.4144 1858.5427 1856.1379 1853.8939 1851.4537 1849.4596 1846.9925 1844.8319 1842.6275 1840.3316 1837.8327 1835.5898 1833.5579 1831.3677 1828.8790 1826.5627 1824.4967 1822.1414 1819.9357 1817.8063 1815.3717 1813.2923 1810.7992 1808.7749 1806.7140 1804.1492 1802.0986 1799.5761 1797.7379 1795.2209 1792.8315 1790.8087 1788.3989 1786.1186 1783.9211 1781.6736 1779.5377 1777.3096 1775.0763 1772.6155 1770.3823 1768.0162 1766.0081 1763.5636 1761.5117 1759.3665 1757.1211 1754.6942 1752.1941 1750.0967 1747.8807 1745.4661 1743.3396 1741.0040 1739.0053 1736.8300 1734.6086 1731.9961 1729.8855 1727.5315 1725.4969 1723.3225 1720.6279 1718.7648 1716.1207 1714.2489 1711.6314 1709.4955 1707.1875 1705.1792 1702.8110 1700.8114 1698.2976 1696.0277 1693.8065 1691.4792 1689.3882 1686.9147 1684.5652 1682.6071 1680.3513 1678.2641 1675.6910 1673.4223 1671.2248 1671.4843 1673.4542 1675.9192 1678.0805 1680.1218 1682.3405 1684.9736 1686.8823 1689.2056 1691.6269 1693.7893 1696.1769 1698.4974 1700.7156 1702.9998 1705.2022 1707.1349 1709.5570 1711.7333 1713.9902 1716.5271 1718.8151 1720.6762 1723.0357 1725.3874 1727.5181 1730.1050 1731.9420 1734.5225 1736.6387 1739.0313 1741.3680 1743.3658 1745.6247 1747.7140 1750.2676 1752.5664 1754.7229 1756.8935 1759.0425 1761.2490 1763.6883 1765.6950 1768.0815 1770.4986 1772.9394 1775.1931 1776.9830 1779.4986 1781.8518 1784.0848 1786.4565 1788.4121 1790.5217 1793.0244 1795.0609 1797.4572 1799.8419 1802.1914 1804.0734 1806.5999 1808.7761 1810.8688 1813.1066 1815.5267 1817.6013 1820.2449 1822.2672 1824.7065 1826.7627 1829.0909 1831.5338 1833.3446 1835.6754 1838.1475 1840.2850 1842.4516 1844.7367 1847.1041 1849.2995 1851.4869 1853.8123 1856.1077 1858.2045 1860.8212 1862.8215 1865.2965 1867.5839 1869.7320 1871.9642 1874.0877 1876.3125 1878.8646 1880.8111 1883.2062 1885.2560 1887.7873 1889.6799 1891.9750 1894.1640 1896.8540 1899.0070 1901.1870 1903.5936 1905.5270 1907.7555 1910.0206 1912.2698 1914.9092 1917.0117 1919.0291 1921.2189 1923.5623 1925.8668 1928.3974 1930.3822 1932.9480 1934.7829 1937.0195 1939.6467 1941.7136 1943.7643 1946.3647 1948.2966 1950.5165 1953.0952 1955.4706 1957.7166 1959.8516 1962.1211 1964.2763 1966.5922 1968.6635 1970.9520 1973.4706 1975.7087 1977.9287 1979.8767 1982.2020 1984.4053 1986.7172 1988.8654 1991.2064 1993.3234 1995.7794 1998.0889 2000.5002 2002.4023 2004.7895 2007.2325 2009.4524 2011.5202 2014.0446 2016.3100 2018.4759 2020.4395
1987.1892 1985.2528 1982.5952 1980.3316 1978.2407 1975.8970 1973.6438 1971.5217 1969.1334 1966.8856 1964.5947 1962.6438 1960.1553 1957.9784 1955.4362 1953.5818 1951.1218 1948.7862 1946.4080 1944.6262 1942.2626 1940.0294 1937.4064 1935.3089 1932.9536 1930.8524 1928.8479 1926.3508 1923.8569 1921.6234 1919.3208 1917.1706 1914.8825 1912.8381 1910.6908 1908.3433 1905.9741 1903.7720 1901.5068 1899.4984 1897.0628 1894.5057 1892.3084 1890.2623 1888.1921 1885.7201 1883.6066 1881.3944 1879.1539 1876.5332 1874.6189 1872.1217 1869.7867 1867.4419 1865.6114 1863.2323 1860.8692 1858.8659 1856.2863 1854.1641 1851.7858 1849.5710 1847.5655 1845.2410 1842.7234 1840.7009 1838.5004 1836.1877 1833.7509 1831.4842 1829.2814 1827.1346 1824.8775 1822.4401 1820.2198 1817.8529 1815.7265 1813.2580 1811.0635 1808.8257 1806.4961 1804.3235 1802.2568 1800.1273 1797.8012 1795.5070 1792.9366 1790.7537 1788.8313 1786.6277 1784.3246 1782.0094 1779.5994 1777.5949 1775.2774 1773.0859 1770.7086 1768.3427 1766.2528 1763.6004 1761.4400 1759.2173 1756.9720 1754.6096 1752.5038 1750.1016 1748.0847 1745.6878 1743.4212 1741.2201 1738.8356 1736.6923 1734.4248 1732.4475 1730.0498 1727.4942 1725.4038 1723.2513 1720.9580 1718.4668 1716.4846 1714.1259 1711.9780 1709.6780 1707.3308 1704.9049 1702.8147 1700.6743 1698.4368 1696.1171 1693.7713 1691.7948 1689.1993 1687.2301 1685.0118 1682.4532 1680.3601 1678.1610 1675.6459 1673.6977 1671.1686 1668.8436 1669.2582 1671.4757 1673.4553 1675.5536 1678.1804 1680.2535 1682.5101 1684.9434 1687.2075 1689.0976 1691.7815 1693.6604 1696.1393 1698.1767 1700.4655 1703.0024 1705.2516 1707.4601 1709.6611 1712.0766 1714.2206 1716.4996 1718.6787 1720.9676 1723.1853 1725.5230 1727.4954 1729.9153 1732.0009 1734.7341 1736.8076 1739.0701 1741.3853 1743.7373 1745.6268 1747.7956 1750.4244 1752.4314 1754.6775 1756.8796 1759.1044 1761.6943 1763.9540 1765.8950 1768.5051 1770.8403 1772.9931 1775.0096 1777.3838 1779.4364 1781.6522 1784.1880 1786.4233 1788.8546 1790.7033 1793.3504 1795.6116 1797.8223 1799.8489 1802.0364 1804.6654 1806.6037 1808.7263 1811.3082 1813.6822 1815.5466 1817.9776 1820.2168 1822.6074 1824.7137 1826.8191 1829.2363 1831.5270 1833.7745 1836.1461 1838.1937 1840.4781 1842.7401 1845.3057 1847.2075 1849.3632 1852.0428 1854.0976 1856.5213 1858.7448 1860.8831 1863.1080 1865.3798 1867.4281 1869.8111 1871.9501 1874.6153 1876.8673 1878.7743 1881.2578 1883.2553 1885.7063 1888.1689 1890.4268 1892.3704 1894.5248 1896.8885 1899.1149 1901.4956 1904.0118 1905.9736 1908.1561 1910.7583 1912.7706 1914.8271 1917.4382 1919.7805 1921.7527 1924.1844 1926.4605 1928.7921 1930.6153 1933.2766 1935.4633 1937.5486 1940.0090 1942.2408 1944.3920 1946.8055 1948.6698 1951.0894 1953.6219 1955.8731 1957.9730 1960.2634 1962.2686 1964.8046 1967.1696 1969.4223 1971.5011 1973.8025 1975.9877 1978.1490 1980.7586 1983.0041 1985.0079 1987.1407 1989.7771 1991.6212 1993.8779 1996.2732 1998.7081 2000.7722 2003.3199 2005.3183 2007.8006 2009.8985 2011.8980 2014.4871 2016.8512 2018.9057
1985.3462 1983.4139 1981.0730 1978.7770 1976.6822 1974.2432 1971.9957 1969.6612 1967.3466 1965.3857 1962.8431 1960.5722 1958.1596 1955.9953 1954.0947 1951.3662 1949.2868 1947.1397 1945.0144 1942.5369 1940.4737 1937.9626 1935.5630 1933.7278 1931.3950 1929.0241 1926.8063 1924.2740 1922.0740 1919.9067 1917.8369 1915.2619 1913.2780 1910.9359 1908.6566 1906.1731 1903.8888 1901.9357 1899.7636 1897.2369 1894.8386 1892.6248 1890.4009 1888.3085 1886.0811 1883.9586 1881.5174 1879.2132 1877.0500 1874.7871 1872.4981 1870.0344 1867.9844 1865.9150 1863.5132 1861.1338 1859.1550 1856.7819 1854.3457 1852.0809 1849.9586 1847.5102 1845.1721 1843.2658 1840.7080 1838.5068 1836.1761 1834.1314 1831.8203 1829.7707 1827.4899 1824.8459 1822.6541 1820.2790 1818.0603 1816.1656 1813.5225 1811.5999 1808.9557 1807.1500 1804.6978 1802.1801 1800.2336 1797.6872 1795.4533 1793.2399 1790.9264 1788.8677 1786.5373 1784.2848 1782.2478 1779.8464 1777.3311 1775.0546 1773.2636 1770.7237 1768.3183 1766.3722 1764.1068 1761.5505 1759.2903 1757.1818 1755.1791 1752.8347 1750.2888 1748.3193 1745.8860 1743.4150 1741.6027 1738.9894 1736.9949 1734.4385 1732.4443 1730.2436 1727.6107 1725.7183 1723.3632 1720.9167 1718.6562 1716.4148 1714.0836 1711.9726 1709.5638 1707.6527 1705.2726 1703.0831 1700.6623 1698.3807 1696.1754 1693.7987 1691.5236 1689.5908 1687.1016 1684.7685 1682.7388 1680.1635 1678.0475 1675.9380 1673.7233 1671.4611 1669.0243 1666.7038 1666.7220 1669.1628 1671.1530 1673.7959 1676.0383 1678.0778 1680.1449 1682.4910 1685.0606 1687.2108 1689.4349 1691.8876 1693.7640 1696.2826 1698.6304 1700.5295 1703.1386 1705.4429 1707.7101 1709.6932 1712.2163 1714.0971 1716.5754 1718.5912 1720.8250 1723.0961 1725.5519 1727.8732 1730.0202 1732.5382 1734.4515 1736.9456 1738.9623 1741.2210 1743.8755 1745.7910 1748.2956 1750.2695 1752.9126 1754.7887 1757.3384 1759.5865 1761.8118 1764.0729 1766.3885 1768.3238 1770.8538 1772.8263 1775.1822 1777.4640 1780.0259 1782.0446 1784.4827 1786.5957 1789.0417 1791.3496 1793.2991 1795.5151 1797.6554 1800.3834 1802.6015 1804.7684 1807.0021 1809.1812 1811.6788 1813.7159 1815.9634 1818.4301 1820.7301 1822.7131 1824.9363 1827.3852 1829.6018 1831.8376 1833.8607 1836.2363 1838.6937 1840.7042 1842.9274 1845.4328 1847.3800 1849.6576 1851.9633 1854.5030 1856.6777 1859.0187 1861.2431 1863.4831 1865.5894 1868.0513 1870.0406 1872.6093 1874.5204 1876.7766 1879.1157 1881.3988 1883.9371 1885.9212 1888.4291 1890.6549 1892.6361 1895.0071 1897.5943 1899.4756 1902.0896 1903.9384 1906.3605 1908.5371 1910.8791 1913.3838 1915.4713 1917.5374 1919.9962 1922.4112 1924.5215 1926.5698 1929.0080 1931.4082 1933.3753 1935.8740 1938.1402 1940.1152 1942.3168 1944.5781 1947.2597 1949.4881 1951.6828 1953.9449 1956.0764 1958.1322 1960.7184 1962.7714 1965.4002 1967.3171 1969.8883 1971.9384 1974.1391 1976.2408 1978.6660 1980.9927 1983.2036 1985.2759 1987.9900 1989.9949 1992.4378 1994.5036 1996.7490 1998.9184 2001.4714 2003.4331 2005.8188 2008.0433 2010.2798 2012.7093 2015.0208 2017.0651
1983.7783 1981.2815 1979.1901 1976.6865 1974.5872 1972.4965 1970.0600 1967.8941 1965.4987 1963.3864 1961.1580 1958.6185 1956.5688 1954.2171 1952.2469 1949.8258 1947.7093 1945.0354 1942.8556 1940.8566 1938.3036 1936.3028 1934.0906 1931.7987 1929.3298 1927.2385 1925.0457 1922.5424 1920.1085 1917.8956 1915.7008 1913.7820 1911.2582 1909.1177 1906.5651 1904.3310 1902.0199 1900.0657 1897.5825 1895.4300 1893.2267 1890.9413 1888.6857 1886.1673 1883.9592 1881.9734 1879.6242 1877.3571 1875.1132 1872.9964 1870.4803 1868.3404 1865.9348 1863.7456 1861.3218 1859.0060 1856.9896 1854.8414 1852.2565 1850.1618 1848.1258 1845.7996 1843.4763 1841.2139 1838.7253 1836.5426 1834.2384 1831.8263 1829.8978 1827.4352 1825.0644 1823.1203 1820.9374 1818.4040 1815.9577 1814.0247 1811.8409 1809.3464 1807.3471 1804.8845 1802.8317 1800.3970 1798.0499 1796.0339 1793.3191 1791.3524 1789.0347 1786.8425 1784.7157 1782.3418 1779.7331 1777.8342 1775.3636 1773.3040 1770.8033 1768.5474 1766.3396 1763.9760 1761.9082 1759.3915 1757.3502 1755.0757 1752.6446 1750.6335 1748.2295 1745.9497 1743.7450 1741.3421 1739.0668 1736.9254 1734.6849 1732.5137 1730.0525 1727.8565 1725.7042 1723.5541 1720.9802 1718.6615 1716.4401 1714.5420 1711.9265 1709.6148 1707.4395 1705.4731 1703.2078 1700.7705 1698.2692 1696.0221 1694.0306 1691.9341 1689.5702 1687.1025 1684.8004 1682.7186 1680.3018 1677.9032 1675.6657 1673.3719 1671.3525 1669.0551 1666.7078 1664.4298 1664.3663 1666.5781 1668.9277 1671.5636 1673.5480 1676.0679 1677.9301 1680.3495 1682.8625 1684.9732 1687.1456 1689.2976 1691.6230 1693.7074 1696.4164 1698.4312 1700.4986 1702.8493 1705.5096 1707.7258 1709.7275 1711.9757 1714.2737 1716.6451 1718.7919 1721.2942 1723.2174 1725.7260 1727.9289 1730.3064 1732.5625 1734.7893 1736.8782 1739.2437 1741.3493 1743.5132 1745.8363 1748.5228 1750.3986 1752.6590 1754.9855 1757.2441 1759.8199 1762.0731 1763.9381 1766.4408 1768.7831 1771.1112 1773.1425 1775.5510 1777.7912 1780.0258 1782.3377 1784.4460 1786.6386 1789.0077 1791.2875 1793.7955 1796.0013 1798.1824 1800.3813 1802.7945 1805.0355 1807.0214 1809.3329 1811.4332 1813.7598 1816.1856 1818.3392 1820.8716 1823.0493 1825.3947 1827.4714 1829.9436 1832.0205 1834.2861 1836.5140 1838.6399 1840.9267 1843.5479 1845.6866 1847.7266 1849.9557 1852.3436 1854.8064 1856.8081 1859.3845 1861.6173 1863.8639 1865.7709 1868.0483 1870.2881 1872.8656 1875.1553 1877.0786 1879.7893 1881.6532 1883.9164 1886.3126 1888.8891 1890.7535 1893.3097 1895.3153 1897.8733 1900.1422 1902.4386 1904.3295 1906.8383 1909.1939 1911.1708 1913.6405 1915.5746 1917.9526 1920.2257 1922.5244 1924.8605 1927.2494 1929.5231 1931.4391 1934.1173 1936.4277 1938.2483 1940.5502 1942.9779 1945.4214 1947.6447 1949.9727 1952.1082 1954.5281 1956.4474 1958.6183 1961.2228 1963.3650 1965.5643 1968.0789 1970.1752 1972.2365 1974.4323 1977.1622 1979.4248 1981.3484 1983.8934 1986.1100 1988.0464 1990.6237 1992.6988 1995.2677 1997.2958 1999.5687 2001.7633 2003.8745 2006.5492 2008.7892 2010.9824 2013.0204 2015.5059
1981.7766 1979.6574 1977.3219 1975.1505 1973.0598 1970.7633 1968.1274 1966.0721 1963.8210 1961.7490 1959.0624 1956.9316 1954.8449 1952.3766 1950.1044 1947.9732 1945.6497 1943.4917 1940.8984 1938.9365 1936.7485 1934.3120 1932.0457 1929.9836 1927.4712 1925.2470 1923.2018 1920.6422 1918.5292 1916.3252 1913.9628 1911.4610 1909.4226 1907.1554 1904.9526 1902.8157 1900.2233 1898.1861 1895.9506 1893.4725 1891.2983 1888.9664 1886.6345 1884.2712 1882.2389 1880.1117 1877.8262 1875.3178 1872.9058 1870.8755 1868.5053 1866.5519 1863.8122 1861.9398 1859.4823 1857.3627 1855.1126 1852.9153 1850.6255 1848.2030 1845.6622 1843.7581 1841.3098 1839.2440 1837.0325 1834.7361 1832.2064 1830.2116 1827.7488 1825.3529 1823.3472 1821.1715 1818.4563 1816.1902 1814.2425 1812.0598 1809.4414 1807.5268 1805.1261 1802.8931 1800.6363 1798.3665 1795.9584 1793.9958 1791.2631 1789.3831 1787.1990 1784.7984 1782.3352 1780.0294 1778.1317 1775.5354 1773.3524 1770.8666 1768.9343 1766.4668 1764.2241 1762.1481 1759.8792 1757.7257 1755.2215 1753.1237 1750.6369 1748.3717 1746.1852 1743.8210 1741.5046 1739.3576 1737.0214 1734.9602 1732.6549 1730.4639 1727.8108 1725.5641 1723.6227 1721.3222 1718.8086 1716.8083 1714.2079 1712.2987 1709.7442 1707.5360 1705.1524 1703.1810 1700.5777 1698.5224 1696.2973 1693.8732 1691.8985 1689.4966 1687.2811 1684.7584 1682.5676 1680.5691 1678.1931 1675.6499 1673.3704 1671.3101 1669.0605 1666.6404 1664.3030 1662.3086 1662.2535 1664.6884 1666.7794 1669.0027 1671.2889 1673.5205 1675.8478 1678.3364 1680.4769 1682.6485 1684.7665 1687.1250 1689.2935 1691.6874 1694.0347 1696.5030 1698.6723 1700.8894 1702.9238 1705.1984 1707.6656 1709.8863 1712.1751 1714.4896 1716.8537 1718.9237 1721.4641 1723.3523 1725.9650 1728.2007 1730.1930 1732.6960 1734.7559 1737.2664 1739.5015 1741.4312 1743.9652 1746.0477 1748.3422 1750.8275 1753.0269 1755.4153 1757.3567 1759.9446 1761.8218 1764.1346 1766.6436 1768.9051 1771.0710 1773.4308 1775.7622 1778.1253 1780.1214 1782.6748 1784.8807 1786.9147 1789.2158 1791.6756 1793.7552 1795.7880 1798.5469 1800.4083 1802.7767 1805.2362 1807.5677 1809.4771 1811.7016 1814.1336 1816.2648 1818.5048 1820.8228 1823.4637 1825.5774 1827.6913 1829.8068 1832.0978 1834.4842 1836.8235 1839.2759 1841.1810 1843.6931 1845.7852 1848.3685 1850.6570 1852.4794 1855.1745 1857.2310 1859.2882 1861.9666 1863.8214 1866.4898 1868.5371 1870.6075 1873.1264 1875.5912 1877.6352 1880.1405 1882.2864 1884.2060 1886.7420 1889.1679 1891.0560 1893.6518 1895.6102 1897.9364 1900.1472 1902.7590 1904.6762 1907.1975 1909.1859 1911.5139 1913.7629 1916.1793 1918.4616 1920.8219 1923.0972 1925.4621 1927.7035 1929.7926 1931.8879 1934.3207 1936.5190 1938.8450 1941.1415 1943.5632 1945.7631 1947.9087 1950.2905 1952.6982 1954.8886 1957.0881 1959.2301 1961.7216 1963.8174 1966.2059 1968.2264 1970.7987 1972.6908 1975.1073 1977.5315 1979.7061 1982.0680 1984.1392 1986.5358 1988.8456 1990.8200 1993.5242 1995.6387 1998.0486 2000.1134 2002.2837 2004.4101 2006.9695 2009.3589 2011.3526 2013.9007
1980.1874 1977.7159 1975.8620 1973.4049 1971.1400 1968.9164 1966.3523 1964.4757 1961.9904 1959.7281 1957.6625 1955.0432 1953.1230 1950.4517 1948.2689 1945.9300 1943.9021 1941.3518 1939.5277 1937.0211 1934.6934 1932.6155 1930.2988 1927.7921 1925.5856 1923.2348 1921.2302 1918.8204 1916.7681 1914.4018 1911.9035 1909.5541 1907.5627 1905.0237 1903.1322 1900.5928 1898.4775 1896.0780 1893.9807 1891.5518 1889.1890 1887.2359 1884.6789 1882.4256 1880.2609 1878.1139 1875.5497 1873.6454 1870.9602 1868.8133 1866.7045 1864.3033 1862.2628 1860.0448 1857.3971 1855.3079 1853.2555 1850.5778 1848.4233 1846.1604 1844.1124 1841.7563 1839.4889 1837.2313 1835.0867 1832.5030 1830.1761 1828.1995 1825.9866 1823.3065 1820.9945 1818.7062 1816.7466 1814.2373 1812.2758 1809.9719 1807.6117 1805.2480 1803.2881 1800.5499 1798.5742 1796.0415 1793.7343 1791.8368 1789.5263 1787.0342 1785.1316 1782.6564 1780.3977 1778.2185 1776.0349 1773.7872 1771.3483 1769.2419 1766.6032 1764.6777 1762.4032 1759.9038 1757.8394 1755.5100 1752.9036 1750.7672 1748.3509 1746.3374 1743.8944 1741.9363 1739.5273 1737.1267 1734.8661 1732.7497 1730.2753 1728.2245 1725.6239 1723.7458 1721.1764 1719.0072 1716.7840 1714.5266 1712.1689 1710.0116 1707.7501 1705.2827 1703.2874 1700.9157 1698.6875 1696.2684 1694.1692 1692.0458 1689.2934 1687.1342 1685.2301 1682.5252 1680.3331 1678.0602 1675.9070 1673.5653 1671.3039 1668.9549 1666.8313 1664.6285 1662.0699 1659.9082 1659.7828 1662.0432 1664.5018 1666.6264 1669.2078 1671.4222 1673.8588 1675.8022 1678.0712 1680.4913 1682.6573 1685.0501 1687.4568 1689.4616 1692.0424 1694.2308 1696.3364 1698.4643 1700.8205 1703.2560 1705.4927 1707.6196 1710.0656 1712.4146 1714.7449 1716.7716 1719.2167 1721.1818 1723.5894 1725.7435 1728.2579 1730.5861 1732.6749 1735.0473 1737.1678 1739.6458 1741.7286 1744.1622 1746.1654 1748.4156 1750.7209 1752.9666 1755.2591 1757.5801 1760.0856 1762.0302 1764.3429 1766.6592 1768.7735 1771.1612 1773.3136 1775.7428 1778.0441 1780.5481 1782.5395 1784.8956 1787.1710 1789.2043 1791.6384 1793.9929 1796.2258 1798.7343 1800.6315 1803.1527 1805.1847 1807.7832 1809.8028 1812.1429 1814.4147 1816.7760 1818.8584 1821.4531 1823.3468 1825.7820 1828.0024 1830.1739 1832.6219 1834.7710 1837.2899 1839.4794 1841.5762 1844.1691 1846.0475 1848.5318 1850.4999 1852.7875 1855.3326 1857.5610 1859.9226 1861.9767 1864.4560 1866.6443 1868.7071 1870.9388 1873.2782 1875.6932 1878.0176 1880.4652 1882.3315 1884.8230 1886.8470 1889.3010 1891.3894 1893.6709 1896.2283 1898.6471 1900.5087 1902.8307 1905.3561 1907.7268 1909.9397 1912.0709 1914.2972 1916.5211 1918.7405 1921.2098 1923.5381 1925.6130 1928.1170 1930.4550 1932.2444 1934.5085 1936.8158 1939.0925 1941.7278 1943.9317 1946.3438 1948.1968 1950.8270 1952.6661 1955.3555 1957.5048 1959.5991 1962.0797 1964.3733 1966.6688 1969.0153 1971.0129 1973.5660 1975.6612 1978.0979 1979.9395 1982.2218 1984.8443 1987.0931 1989.0483 1991.5328 1993.8090 1995.8057 1998.2650 2000.5490 2002.7892 2005.2719 2007.4882 2009.6309 2011.7756
1978.4005 1975.9675 1973.7990 1971.6569 1969.4387 1967.0121 1964.6710 1962.4528 1960.0166 1957.8856 1955.6263 1953.1556 1951.2642 1948.7886 1946.4954 1944.4428 1941.9270 1939.8283 1937.6361 1935.0372 1932.8805 1930.8574 1928.1684 1925.9870 1923.9413 1921.6423 1919.0881 1916.9514 1914.5873 1912.4467 1910.0544 1907.8005 1905.4461 1903.4301 1901.2780 1898.7888 1896.4353 1894.1962 1892.1453 1889.5788 1887.2742 1885.2084 1882.6378 1880.7576 1878.1207 1876.1631 1873.8376 1871.2975 1869.3375 1866.8475 1864.5142 1862.2038 1860.2131 1857.6392 1855.8064 1853.0725 1850.8304 1848.7131 1846.6326 1844.4544 1842.0605 1839.5828 1837.3087 1835.3189 1832.9063 1830.7707 1828.2110 1826.2541 1823.6238 1821.6668 1819.0336 1817.1198 1814.9083 1812.6014 1810.0334 1808.0323 1805.3992 1803.0897 1800.9259 1798.6444 1796.6253 1794.1975 1791.7972 1789.7363 1787.2706 1785.0956 1782.9517 1780.3930 1778.3311 1776.0463 1773.6665 1771.3272 1768.9652 1766.8969 1764.5451 1762.2184 1760.3001 1757.9523 1755.3671 1753.1688 1750.9789 1748.6509 1746.3566 1744.2873 1741.9251 1739.4747 1737.4921 1734.9941 1732.5674 1730.5193 1728.2983 1726.1059 1723.7854 1721.2546 1719.3333 1716.7525 1714.6213 1712.4576 1709.9330 1707.7861 1705.3226 1703.2861 1700.9477 1698.6117 1696.4048 1694.1172 1692.0102 1689.7590 1687.1265 1684.8725 1682.6860 1680.4356 1678.2801 1675.8247 1673.4374 1671.2501 1668.9617 1666.7622 1664.7233 1662.3568 1659.9580 1657.6565 1657.7953 1659.7873 1662.4070 1664.6254 1666.9554 1669.0762 1671.1807 1673.6165 1675.9966 1678.1163 1680.3315 1682.9240 1685.0823 1687.3453 1689.6383 1692.0793 1694.1509 1696.6447 1698.7603 1700.7430 1703.3238 1705.2914 1707.8860 1710.1847 1712.5330 1714.5898 1716.9812 1719.2582 1721.3381 1723.8199 1726.0329 1728.1239 1730.5961 1732.5960 1734.9174 1737.5098 1739.7626 1741.9813 1744.3879 1746.2326 1748.5529 1750.8745 1753.5087 1755.2967 1757.5852 1760.2040 1762.4870 1764.4822 1766.9655 1769.3859 1771.3015 1773.7322 1776.1036 1778.4336 1780.5610 1782.7453 1784.9579 1787.3919 1789.4468 1791.9185 1794.4161 1796.6035 1798.9145 1800.9247 1803.1211 1805.4225 1807.7225 1810.3461 1812.1631 1814.7128 1816.8804 1819.1083 1821.2962 1823.7411 1825.7834 1828.1903 1830.4945 1832.7256 1835.2542 1837.5344 1839.8930 1841.7307 1844.0018 1846.3220 1848.9972 1851.1029 1853.5019 1855.3864 1858.0130 1860.2084 1862.6323 1864.9099 1866.8505 1869.1326 1871.4058 1873.6545 1876.1556 1878.4508 1880.7436 1882.7789 1885.3391 1887.2003 1889.4626 1891.7406 1894.4594 1896.7050 1899.0415 1901.0125 1903.4574 1905.6834 1907.9772 1910.3246 1912.3696 1914.8647 1916.9038 1919.3662 1921.4991 1923.9549 1926.2884 1928.4649 1930.8402 1933.1295 1935.0934 1937.2137 1939.5055 1941.7892 1944.1347 1946.4014 1948.8636 1951.1918 1953.1722 1955.5000 1958.0350 1960.2044 1962.5206 1964.9695 1966.9535 1969.4995 1971.6164 1973.7485 1976.1043 1978.5340 1980.5320 1983.1484 1985.3539 1987.4755 1989.6026 1991.9534 1994.2120 1996.6895 1998.7425 2001.2283 2003.1983 2005.6414 2008.1580 2010.0643
1976.4829 1974.3821 1972.0082 1969.6422 1967.3636 1965.2462 1962.8483 1960.5508 1958.1973 1956.1105 1953.9818 1951.4107 1949.4100 1946.9852 1944.9388 1942.2087 1940.3918 1937.8086 1935.3856 1933.0899 1931.1659 1928.6505 1926.7016 1923.9823 1921.9101 1919.9064 1917.6296 1915.1417 1912.8936 1910.3166 1908.1685 1905.9929 1903.8910 1901.5556 1899.3537 1897.0968 1894.4932 1892.1812 1890.1475 1887.5984 1885.5768 1883.1614 1881.0082 1878.8591 1876.6181 1874.2678 1871.7886 1869.7260 1867.3182 1864.8092 1862.6346 1860.4636 1858.2466 1855.8004 1853.7193 1851.5442 1849.2104 1846.8028 1844.6272 1842.2415 1839.9752 1837.4476 1835.2480 1833.0613 1830.8260 1828.5522 1826.4273 1823.9714 1821.6019 1819.4522 1817.1154 1814.9736 1812.4729 1810.5256 1808.1014 1805.6356 1803.3034 1801.3295 1799.1933 1796.7591 1794.3586 1792.1994 1789.8865 1787.3661 1785.4244 1782.8580 1780.5487 1778.6748 1776.3564 1773.7326 1771.5797 1769.1802 1767.2905 1764.5898 1762.3558 1760.3996 1758.0232 1755.6455 1753.2222 1751.3134 1749.1230 1746.5376 1744.5441 1741.8136 1739.8676 1737.4566 1735.1659 1732.7472 1730.8980 1728.4173 1726.0974 1723.7897 1721.3271 1719.4429 1716.7878 1714.4900 1712.2315 1710.2224 1708.0502 1705.8152 1703.1588 1700.9179 1699.0240 1696.6778 1694.1268 1692.0646 1689.7429 1687.3019 1685.0770 1682.7813 1680.3370 1678.1441 1675.8927 1673.5962 1671.6799 1669.0111 1666.7645 1664.8275 1662.4860 1660.1122 1657.7941 1655.5068 1655.6238 1658.0142 1660.1090 1662.5510 1664.5722 1667.0156 1668.9921 1671.3668 1673.5509 1676.1813 1678.1080 1680.3295 1682.9108 1684.9644 1687.4523 1689.4885 1692.0460 1694.0511 1696.3211 1698.7367 1701.1791 1703.1762 1705.3782 1707.7990 1710.1231 1712.5125 1714.6103 1717.0231 1719.3890 1721.7391 1723.9918 1726.3242 1728.4121 1730.8997 1732.9161 1735.2106 1737.6476 1739.7039 1742.1901 1744.5219 1746.7606 1748.8369 1751.0955 1753.2053 1755.4762 1757.8857 1760.2396 1762.4487 1764.9265 1767.2908 1769.5660 1771.7997 1773.9744 1776.0289 1778.2987 1780.6590 1782.8092 1785.3534 1787.7879 1789.7698 1792.3100 1794.5544 1796.5432 1799.2010 1801.4385 1803.4260 1805.6083 1808.0714 1810.3588 1812.5575 1814.7705 1817.3766 1819.3942 1821.7109 1824.1749 1826.3844 1828.5657 1830.9070 1833.0167 1835.3217 1837.8613 1840.1674 1842.1436 1844.4965 1846.9883 1849.1818 1851.2749 1853.6588 1855.6605 1858.0829 1860.5182 1862.8427 1865.1447 1867.1963 1869.6413 1871.6066 1873.9252 1876.3044 1878.7244 1880.9529 1883.1489 1885.4648 1887.8425 1890.1677 1892.2753 1894.4008 1896.9537 1899.1711 1901.2671 1903.7097 1906.2356 1908.1446 1910.6962 1912.9564 1914.8889 1917.4569 1919.4387 1921.8293 1924.3491 1926.7199 1928.7754 1930.9905 1933.2978 1935.5827 1937.6490 1940.0648 1942.2360 1944.6865 1946.8766 1949.0535 1951.5433 1953.8578 1955.8862 1958.4500 1960.7681 1962.7599 1965.4293 1967.7003 1969.5755 1972.0266 1974.3554 1976.4752 1978.9542 1981.1773 1983.6232 1985.7565 1987.9519 1990.3574 1992.6096 1994.6384 1997.2599 1999.1972 2001.8089 2004.0064 2006.2866 2008.3735
1974.6230 1972.5908 1970.1454 1967.8411 1965.6549 1963.4897 1961.3642 1959.0665 1956.6577 1954.3887 1952.1298 1949.5506 1947.3842 1945.4070 1942.9079 1940.5640 1938.1274 1936.0047 1933.8250 1931.2821 1929.1535 1927.0563 1924.8805 1922.1513 1919.8910 1917.7038 1915.6917 1913.0198 1911.1163 1908.4418 1906.6449 1904.1564 1901.9288 1899.3428 1897.3202 1895.0236 1892.5634 1890.4832 1888.3725 1885.8265 1883.5008 1881.2687 1879.0875 1876.8214 1874.5066 1872.0982 1869.9454 1867.3978 1865.4699 1863.1933 1860.9494 1858.5890 1856.0703 1853.7353 1851.7713 1849.5227 1846.9254 1844.9446 1842.3069 1840.4959 1837.9902 1835.6360 1833.6047 1830.9446 1828.9288 1826.6645 1824.4899 1822.2505 1819.8651 1817.6521 1814.9798 1812.8387 1810.4523 1808.4515 1805.8053 1803.6256 1801.5132 1799.2442 1796.7628 1794.4394 1792.2488 1789.8711 1787.6538 1785.6714 1783.4784 1780.9911 1778.4677 1776.2039 1773.9092 1771.8051 1769.5510 1767.4592 1765.0556 1762.9072 1760.2064 1758.1299 1755.8352 1753.8268 1751.3375 1749.0897 1746.7683 1744.4469 1741.9892 1739.7279 1737.8576 1735.4332 1733.2463 1730.5754 1728.5249 1726.2025 1723.8012 1721.8256 1719.4495 1717.2238 1714.6630 1712.5845 1710.4183 1708.0815 1705.6891 1703.5232 1701.0492 1699.0503 1696.6489 1694.5393 1691.7992 1689.7636 1687.4291 1685.2098 1683.0716 1680.3961 1678.2450 1675.8797 1673.9495 1671.5869 1669.2644 1666.8638 1664.7101 1662.2541 1660.2793 1657.6112 1655.6182 1653.3231 1653.2247 1655.7704 1657.5809 1660.1414 1662.4247 1664.4617 1666.7158 1669.4066 1671.7140 1673.8699 1675.8815 1678.5471 1680.5442 1683.0481 1685.3990 1687.5296 1689.5939 1691.9664 1694.0572 1696.6804 1698.7134 1701.1308 1703.1901 1705.7037 1707.8278 1710.1951 1712.6405 1715.0426 1717.0307 1719.5669 1721.6639 1723.8375 1726.0930 1728.6061 1730.5995 1733.0526 1735.4759 1737.5631 1739.7535 1742.2111 1744.5518 1746.6948 1749.0947 1751.4906 1753.5887 1756.0053 1757.9440 1760.2116 1762.4938 1764.9410 1767.1142 1769.5290 1772.0619 1774.1521 1776.5369 1778.6218 1781.0925 1783.2307 1785.5581 1787.8944 1790.1462 1792.4111 1794.7132 1796.9174 1799.1510 1801.2510 1803.7288 1806.0077 1808.1739 1810.5871 1812.8766 1815.1564 1817.2610 1819.6020 1822.0788 1824.0945 1826.3308 1828.7512 1831.0761 1833.6064 1835.9192 1838.0887 1840.0498 1842.7607 1845.0248 1847.1804 1849.1560 1851.9042 1853.9870 1856.2263 1858.6383 1860.9804 1863.0403 1865.1552 1867.8501 1869.9124 1872.3315 1874.6465 1876.6247 1879.0842 1881.4758 1883.5616 1885.9689 1888.1264 1890.4042 1892.8999 1895.2209 1897.2443 1899.5783 1901.6070 1904.1712 1906.4515 1908.5873 1911.0610 1913.1895 1915.4157 1917.7674 1920.0297 1922.3162 1924.4455 1927.0744 1929.1399 1931.2366 1933.5577 1936.2681 1938.5703 1940.6420 1943.0571 1945.4157 1947.6763 1949.5130 1951.7641 1954.0518 1956.5813 1958.8164 1960.8915 1963.5765 1965.5633 1967.7375 1970.2949 1972.4087 1974.8945 1976.8550 1979.2119 1981.7223 1984.1479 1986.2209 1988.5056 1990.9644 1993.3083 1995.1448 1997.7971 1999.7660 2002.1875 2004.6352 2006.9039
