ncols         298
nrows         32
xllcorner     100250
yllcorner     101070
cellsize      10
NODATA_value  -9999
2371.8805 2369.7411 2367.3448 2365.4032 2363.4438 2361.5490 2359.2235 2357.2177 2355.2174 2353.1891 2351.1876 2349.0389 2347.2902 2344.9034 2343.0516 2341.1752 2338.9619 2336.7456 2334.9481 2332.7145 2330.7138 2328.4691 2326.6757 2324.8016 2322.5849 2320.3467 2318.4542 2316.3458 2314.5483 2312.4821 2310.1483 2308.3934 2306.1080 2303.9772 2302.2766 2300.1736 2297.8485 2296.0028 2294.1222 2291.8863 2289.7823 2287.5421 2285.5682 2283.4213 2281.5836 2279.3486 2277.5302 2275.5465 2273.6394 2271.5434 2269.1163 2267.0397 2265.0547 2262.9983 2261.3879 2259.2502 2256.8499 2254.8836 2252.9168 2250.7194 2248.6377 2246.9598 2244.7845 2242.8092 2240.6284 2238.8190 2236.4672 2234.5454 2232.5271 2230.2302 2228.5423 2226.2453 2224.4007 2222.0568 2220.1845 2218.2986 2216.1873 2214.2933 2211.8641 2209.9409 2207.8199 2205.8417 2203.8023 2201.8340 2199.9386 2197.9499 2195.4824 2193.7303 2191.6132 2189.7235 2187.6012 2185.4730 2183.5493 2181.4773 2179.3155 2177.0815 2175.1224 2173.2649 2171.0157 2169.1992 2167.0559 2164.8136 2162.7040 2160.8888 2158.8634 2156.7796 2154.6393 2152.6806 2150.5778 2148.5894 2146.4898 2144.3522 2142.5833 2140.6269 2138.4355 2136.1612 2134.2620 2132.1642 2130.2451 2128.0749 2126.0858 2123.9357 2121.9608 2119.8445 2117.8213 2115.6389 2113.6962 2111.9325 2109.6137 2107.4464 2105.7444 2103.5963 2101.5146 2099.4802 2097.6976 2095.3233 2093.4002 2091.1408 2089.0338 2087.2432 2085.2482 2082.9527 2081.0979 2079.1023 2076.9217 2075.1635 2073.1541 2070.7967 2069.0064 2066.5346 2064.5940 2062.8982 2060.3969 2058.3995 2056.2995 2054.4427 2052.5196 2050.6026 2048.3936 2046.1098 2044.3778 2042.1052 2040.1698 2038.3069 2036.2189 2034.1029 2032.1578 2029.7096 2027.8897 2025.6466 2023.5847 2021.8982 2019.8582 2017.5260 2015.7173 2013.3578 2011.5423 2009.2526 2007.2531 2005.2997 2003.2291 2001.2319 1999.1861 1997.1118 1994.9923 1992.9110 1991.0493 1988.7803 1986.9530 1984.7867 1982.6442 1980.7929 1978.8132 1976.8213 1974.4717 1972.6694 1970.7525 1968.7349 1966.4938 1964.5388 1962.5667 1960.5420 1958.3982 1956.0599 1954.0000 1952.4101 1949.9960 1947.8988 1945.8894 1943.9646 1941.9302 1939.6800 1937.9014 1935.6922 1933.7664 1931.8594 1929.5912 1927.8160 1925.6146 1923.7785 1921.4166 1919.4221 1917.5276 1915.5853 1913.3018 1911.5203 1909.0477 1907.3664 1905.2731 1903.1435 1901.1607 1898.7511 1897.0298 1894.7343 1892.7248 1890.7450 1888.7566 1886.9693 1884.5470 1882.3825 1880.7056 1878.7277 1876.4286 1874.2223 1872.3333 1870.4872 1868.1385 1866.3924 1864.2505 1861.9573 1860.1114 1857.9687 1855.7966 1854.1511 1851.7999 1849.7456 1848.0283 1845.8786 1843.6620 1841.4796 1839.4999 1837.4008 1835.5657 1833.7485 1831.4501 1829.2168 1827.1426 1825.3750 1823.2526 1821.2104 1819.2168 1817.3472 1814.8910 1812.8156 1811.1786 1811.1003 1813.1863 1814.9638 1817.0238 1819.3852 1821.2779 1823.4650 1825.3747 1827.3106 1829.1952 1831.6468 1833.5746 1835.4853 1837.7727 1839.6331 1841.5685 1843.5578 1845.8661 1847.7851 1849.9905 1852.1757 1854.0177 1856.2703
2370.1830 2368.2681 2365.9904 2364.3154 2362.3205 2359.8811 2357.9010 2355.7682 2353.9956 2351.8435 2349.6331 2347.6070 2345.5918 2343.4260 2341.6830 2339.7684 2337.2845 2335.3693 2333.4672 2331.2498 2329.3367 2327.0512 2325.1730 2322.9198 2320.9687 2319.1138 2316.9192 2314.9919 2312.8239 2310.9451 2308.5896 2306.5929 2304.6984 2302.9176 2300.5949 2298.7066 2296.5709 2294.5046 2292.1930 2290.1678 2288.1188 2286.3532 2284.4532 2282.3685 2280.1697 2278.1737 2276.0507 2274.1638 2272.0611 2269.7698 2267.5902 2265.7753 2263.7481 2261.4993 2259.7651 2257.7031 2255.5780 2253.4789 2251.2279 2249.5995 2247.1251 2245.1596 2243.0212 2241.3327 2239.1179 2237.3346 2235.0515 2232.9950 2231.0656 2228.9164 2227.0282 2224.9025 2222.8531 2220.8368 2218.4674 2216.4315 2214.6466 2212.4816 2210.2654 2208.2013 2206.4093 2204.3964 2202.2538 2199.9918 2198.3373 2196.0700 2194.1724 2192.0046 2190.1647 2187.9220 2186.0019 2183.7826 2181.9781 2179.9533 2177.6353 2175.6766 2173.6728 2171.4750 2169.4918 2167.2030 2165.4708 2163.2357 2161.1946 2159.0009 2157.3073 2155.0365 2152.9765 2151.0219 2148.7932 2146.7150 2144.7694 2142.5744 2140.5417 2138.7585 2136.5283 2134.4377 2132.4288 2130.3259 2128.2702 2126.6442 2124.4332 2122.4130 2120.1855 2118.4159 2115.9568 2114.1858 2112.0614 2109.8917 2108.0636 2105.7371 2103.9279 2101.9791 2099.6436 2097.6681 2095.7630 2093.5108 2091.6408 2089.6003 2087.3932 2085.5064 2083.4461 2081.1630 2079.4808 2077.1025 2075.0724 2073.1393 2071.2656 2068.9527 2066.9890 2065.0670 2062.9201 2060.7387 2058.9161 2056.8386 2054.5463 2052.4261 2050.6322 2048.4627 2046.2869 2044.6263 2042.4263 2040.2602 2038.3946 2036.1173 2034.2291 2032.2103 2029.9371 2028.2779 2026.2076 2023.7472 2021.7289 2019.8831 2017.7484 2015.9950 2013.6320 2011.8179 2009.7863 2007.7974 2005.3926 2003.2607 2001.3525 1999.5582 1997.5546 1995.4536 1993.1257 1991.1980 1989.0383 1986.8212 1985.1161 1982.7970 1980.8488 1979.0189 1976.9949 1974.7082 1972.9555 1970.6226 1968.7665 1966.3390 1964.2793 1962.5471 1960.5476 1958.3450 1956.2046 1954.2513 1952.1314 1950.2193 1948.3416 1946.0661 1944.1721 1942.0754 1939.7942 1937.6873 1935.7223 1933.7198 1931.8328 1929.5061 1927.4728 1925.7808 1923.4546 1921.4954 1919.4369 1917.2334 1915.5517 1913.3277 1911.2688 1909.2140 1907.2477 1905.3219 1902.9452 1900.8185 1898.9515 1896.9051 1894.8525 1892.5513 1890.8129 1888.8655 1886.4978 1884.6275 1882.7844 1880.5772 1878.5682 1876.2544 1874.4641 1872.0521 1870.4801 1868.2447 1865.9157 1864.2729 1862.2447 1859.9487 1857.9199 1856.1368 1854.0620 1851.9825 1849.5133 1847.7009 1845.6963 1843.6426 1841.3454 1839.5351 1837.4219 1835.2998 1833.3464 1831.2307 1829.0732 1827.3712 1825.0960 1822.9619 1820.8975 1819.0577 1817.1201 1814.6762 1812.7981 1810.7490 1808.9692 1808.9381 1811.0638 1812.6905 1815.0118 1817.0066 1818.9957 1821.1038 1823.2092 1824.9383 1827.2937 1829.0161 1831.4783 1833.5471 1835.3547 1837.5474 1839.5861 1841.5714 1843.6420 1845.8814 1847.6273 1849.7031 1851.5528 1853.7761
2368.7612 2367.0295 2364.7186 2362.7723 2360.6514 2358.4980 2356.8617 2354.8073 2352.5438 2350.3901 2348.5835 2346.1595 2344.1132 2342.1610 2340.0064 2338.3171 2336.1117 2333.9419 2332.2475 2330.1887 2327.8738 2325.7882 2323.8003 2321.6245 2319.7658 2317.7118 2315.6623 2313.3250 2311.7366 2309.3651 2307.4020 2305.5374 2303.3353 2301.2402 2299.3229 2297.3505 2294.9163 2292.8146 2291.0573 2288.7299 2286.8769 2284.6877 2282.7597 2280.4620 2278.7642 2276.7141 2274.4359 2272.5342 2270.4486 2268.3067 2266.5350 2264.3883 2262.0850 2260.3380 2258.0300 2255.9373 2254.0208 2251.9755 2249.8718 2247.8169 2245.6327 2243.7149 2241.9397 2239.3981 2237.5623 2235.3815 2233.2775 2231.3383 2229.3670 2227.1938 2225.2628 2223.0391 2221.0993 2219.1819 2217.3108 2215.1183 2212.8342 2210.8928 2208.8574 2206.7788 2204.5911 2202.7853 2200.5015 2198.6481 2196.3928 2194.6963 2192.1878 2190.2957 2188.3149 2186.1103 2183.9877 2182.0781 2179.9957 2178.2678 2176.1309 2174.1881 2172.1352 2169.9004 2167.8578 2165.8211 2163.6480 2161.5619 2159.5842 2157.3202 2155.4450 2153.3021 2151.4810 2149.3781 2147.3240 2145.2328 2143.3653 2140.9275 2139.1194 2137.0742 2134.9878 2132.8078 2130.7882 2128.7429 2126.5822 2124.7559 2122.4572 2120.3990 2118.4430 2116.6999 2114.3809 2112.4479 2110.2008 2108.2177 2106.0396 2104.1205 2102.0931 2100.1360 2098.1450 2096.0985 2094.0794 2091.6509 2089.5715 2087.7423 2085.4497 2083.8351 2081.7342 2079.4895 2077.2566 2075.1899 2073.1695 2071.0909 2069.4895 2067.4366 2064.9792 2063.0050 2060.8929 2059.1675 2056.9171 2054.6699 2052.6446 2050.9287 2048.5077 2046.5677 2044.6607 2042.3947 2040.3996 2038.3421 2036.3026 2034.2725 2032.3226 2030.0628 2028.2442 2026.3429 2024.1427 2022.1380 2020.1402 2017.7590 2015.7890 2014.0741 2011.5958 2009.7941 2007.6551 2005.5751 2003.3304 2001.3356 1999.6641 1997.3977 1995.4365 1993.1173 1991.0266 1989.0413 1987.3698 1985.2408 1982.9121 1980.7826 1978.7073 1976.8603 1974.6401 1972.8627 1970.9177 1968.8673 1966.7499 1964.4086 1962.3952 1960.2339 1958.2221 1956.1341 1954.3946 1952.3407 1950.3877 1947.9055 1946.1987 1944.1644 1941.9488 1940.0664 1937.6874 1935.5886 1933.6300 1931.6445 1929.8226 1927.8293 1925.6561 1923.7222 1921.4346 1919.2998 1917.4102 1915.2002 1913.4609 1911.3162 1909.2784 1907.2760 1904.8953 1902.8221 1901.0484 1898.8269 1897.0117 1894.9593 1892.9241 1890.5686 1888.4403 1886.8137 1884.7145 1882.4899 1880.3366 1878.5978 1876.0698 1874.2494 1872.1756 1870.2500 1868.2740 1865.8252 1864.0583 1861.8153 1859.7829 1857.7881 1855.8622 1853.5174 1851.7465 1849.4997 1847.3819 1845.6662 1843.5102 1841.2844 1839.3798 1837.1422 1835.4177 1833.0668 1831.0670 1828.8973 1826.9935 1824.9434 1822.6916 1821.0485 1818.9793 1816.9956 1814.8461 1812.8324 1810.4527 1808.4319 1806.7002 1806.3208 1808.4783 1810.7423 1812.5963 1814.9662 1816.5887 1818.9919 1821.0798 1823.0732 1824.7720 1826.8078 1829.0396 1831.1822 1833.1649 1835.2414 1837.3024 1839.4191 1841.5735 1843.4501 1845.6693 1847.4836 1849.5716 1851.8805
2367.8386 2365.6054 2363.5852 2361.6525 2359.5423 2357.1065 2355.4774 2353.3149 2351.3701 2349.2523 2347.2237 2344.9153 2343.1252 2340.7599 2338.9843 2336.9380 2334.7425 2332.7646 2330.8261 2328.7647 2326.6837 2324.2659 2322.5540 2320.1909 2318.2440 2316.3964 2314.3928 2311.9731 2309.8667 2307.7763 2306.0905 2304.0573 2302.0315 2299.8579 2297.7400 2295.9112 2293.7785 2291.5404 2289.5121 2287.2891 2285.4299 2283.5257 2281.0444 2279.3346 2277.3621 2275.0158 2273.0048 2271.1620 2268.7706 2267.0246 2264.6287 2262.9135 2260.6068 2258.8418 2256.6245 2254.4230 2252.4015 2250.4505 2248.2526 2246.5104 2244.0752 2242.2894 2240.1194 2237.9016 2235.9894 2234.0310 2231.6970 2229.9057 2227.9697 2225.5854 2223.7677 2221.7922 2219.4069 2217.5767 2215.5698 2213.4446 2211.3097 2209.2191 2207.3217 2205.1113 2203.3239 2200.8569 2199.1566 2196.7978 2194.8931 2192.6786 2190.8746 2188.5878 2186.8751 2184.5710 2182.8181 2180.3915 2178.4531 2176.6214 2174.1415 2172.5127 2170.0226 2168.0333 2166.0042 2164.2400 2161.8556 2160.2001 2157.9304 2155.9053 2153.7479 2151.7619 2149.7593 2147.4276 2145.6552 2143.5165 2141.2364 2139.2473 2137.1865 2135.5286 2133.4427 2130.9724 2128.9292 2127.1587 2124.8244 2122.9359 2121.1204 2118.6914 2116.5612 2114.4854 2112.7775 2110.4374 2108.7360 2106.3717 2104.5923 2102.2699 2100.2079 2098.3905 2096.3544 2094.1267 2092.0359 2090.1820 2088.1562 2085.9578 2083.9766 2081.8895 2079.6599 2077.8479 2075.5184 2073.7857 2071.7159 2069.6346 2067.3765 2065.6067 2063.5416 2061.1032 2059.3208 2056.9259 2055.3007 2053.0408 2050.7440 2049.0033 2046.7757 2044.8318 2042.8805 2040.7473 2038.7009 2036.3800 2034.7601 2032.6498 2030.2893 2028.3852 2026.3916 2024.4898 2022.2455 2019.9696 2017.8518 2015.8476 2014.1455 2012.0755 2009.6852 2007.8063 2005.7594 2003.7103 2001.7249 1999.7190 1997.5666 1995.3180 1993.2127 1991.4710 1989.3175 1987.4799 1985.4272 1983.0052 1981.2408 1979.1159 1976.7650 1974.9751 1972.8420 1970.7038 1968.9521 1966.8501 1964.7778 1962.7689 1960.3360 1958.4801 1956.3889 1954.5806 1952.1013 1950.0358 1948.2524 1946.1381 1944.2901 1942.0329 1940.0416 1937.8892 1935.8953 1933.7720 1931.8016 1929.5896 1927.4872 1925.3667 1923.5631 1921.3951 1919.5197 1917.4930 1915.3809 1913.1945 1911.3213 1908.9344 1907.2159 1904.7623 1902.9084 1900.8697 1898.8688 1896.8931 1894.6318 1892.4661 1890.8233 1888.3440 1886.4006 1884.4387 1882.4290 1880.5557 1878.4105 1876.1830 1874.1467 1871.9114 1870.0149 1867.7984 1865.8049 1863.8507 1862.0187 1859.9774 1857.8047 1855.6652 1853.4567 1851.5688 1849.5911 1847.5524 1845.4026 1843.4054 1841.2259 1839.4581 1837.3493 1835.0271 1832.9127 1830.9214 1829.0597 1826.8837 1824.5694 1822.7187 1820.5587 1818.4507 1816.7207 1814.6003 1812.4661 1810.6431 1808.1506 1806.5359 1804.3365 1804.3695 1806.1742 1808.3888 1810.2903 1812.3327 1814.3824 1816.4854 1818.6706 1820.7712 1822.6589 1824.9058 1827.0150 1829.0615 1830.8865 1832.8853 1835.2504 1836.9298 1839.1353 1841.5117 1843.3470 1845.5372 1847.1861 1849.4196
2366.3571 2364.2642 2362.3149 2360.0618 2358.2135 2355.8818 2353.8252 2351.8023 2350.0067 2347.8472 2345.7033 2343.7313 2341.3873 2339.3647 2337.4967 2335.4657 2333.4491 2331.3568 2329.2380 2327.2429 2324.9241 2322.8498 2321.2351 2319.0570 2317.0188 2314.8467 2312.9116 2310.4757 2308.8256 2306.6729 2304.2679 2302.6121 2300.3176 2298.3047 2296.2980 2294.3460 2291.9312 2289.9774 2288.0518 2285.8400 2283.8043 2281.8150 2279.9880 2277.5483 2275.7981 2273.4800 2271.6144 2269.3007 2267.6610 2265.5991 2263.1206 2261.1521 2259.2553 2257.0934 2255.0527 2252.8927 2250.9032 2248.9959 2246.9435 2244.7599 2242.5797 2240.8701 2238.6124 2236.6007 2234.6538 2232.6197 2230.1748 2228.4597 2226.3745 2223.9920 2222.1902 2220.0213 2218.0590 2215.9888 2213.7243 2212.0440 2209.9537 2207.9625 2205.5522 2203.7423 2201.3527 2199.7037 2197.5431 2195.4081 2193.1557 2191.0811 2188.9744 2187.0296 2184.8644 2183.1101 2180.7494 2178.7304 2177.0415 2174.6868 2172.6302 2170.8403 2168.8330 2166.6479 2164.6729 2162.3341 2160.5914 2158.5268 2156.0844 2153.9442 2151.9819 2150.1627 2147.8606 2146.1447 2144.0583 2142.0340 2139.7725 2137.8182 2135.6090 2133.5875 2131.4280 2129.3898 2127.3247 2125.1488 2123.1157 2121.3464 2119.3001 2117.3248 2114.7949 2112.9036 2111.0686 2108.6751 2106.7799 2104.9124 2102.8244 2100.4456 2098.3597 2096.4060 2094.5052 2092.6135 2090.4234 2088.1337 2086.4386 2084.0765 2082.1806 2080.2782 2077.9993 2075.7740 2073.9109 2071.6345 2069.8134 2067.5797 2065.7195 2063.3988 2061.4629 2059.5938 2057.3872 2055.2079 2053.4299 2051.4044 2048.9729 2047.1452 2045.0407 2042.7308 2040.7107 2038.9208 2036.8015 2034.6529 2032.7448 2030.8064 2028.3304 2026.6271 2024.3849 2022.2744 2020.5488 2018.2571 2016.0265 2013.9034 2011.8312 2010.1352 2008.0941 2006.1136 2004.0070 2001.5776 1999.8477 1997.4282 1995.8131 1993.3758 1991.6345 1989.1982 1987.5919 1985.5195 1983.0781 1981.0647 1979.0411 1977.1398 1974.8173 1973.1598 1970.7083 1968.7392 1966.5842 1964.8813 1962.4729 1960.4776 1958.3306 1956.2341 1954.2226 1952.5900 1950.3641 1948.4682 1946.1137 1944.1030 1942.0614 1939.8445 1938.1183 1936.0651 1933.8011 1931.6446 1929.8351 1927.8314 1925.5915 1923.6947 1921.3359 1919.4318 1917.4443 1915.0704 1912.9684 1911.2547 1909.0556 1907.1682 1905.0716 1903.0578 1900.9565 1898.8492 1896.9645 1894.5742 1892.7298 1890.7802 1888.7459 1886.3058 1884.5744 1882.0852 1880.3210 1878.0310 1875.9518 1873.9667 1872.2245 1870.0021 1868.1243 1865.7003 1863.9441 1861.6731 1859.4341 1857.5607 1855.4870 1853.3820 1851.3873 1849.2158 1847.3714 1845.2616 1843.1546 1841.1859 1838.8887 1836.9687 1835.1226 1832.8093 1830.6154 1828.5746 1826.7614 1824.8010 1822.4924 1820.3451 1818.2947 1816.3145 1814.2236 1812.4435 1810.3298 1808.0912 1806.1765 1804.1020 1801.9277 1802.1672 1804.0866 1806.0131 1808.0596 1810.0434 1812.3610 1814.4721 1816.6022 1818.4167 1820.3620 1822.7437 1824.6799 1826.9618 1828.8866 1830.9136 1832.7895 1835.1023 1836.8896 1839.1654 1841.2436 1842.9652 1845.1824 1847.5443
2364.7528 2362.9012 2360.8784 2358.8416 2356.7784 2354.6140 2352.4295 2350.4676 2348.5362 2346.5443 2344.1092 2342.0877 2339.9906 2338.0690 2335.9975 2334.0203 2331.7250 2330.0440 2327.6715 2325.9978 2323.6934 2321.4334 2319.8188 2317.4611 2315.6890 2313.1473 2311.4958 2309.4871 2307.2456 2305.3028 2303.1715 2301.1048 2298.6994 2296.9330 2294.8609 2292.9454 2290.8810 2288.8479 2286.7247 2284.5200 2282.6355 2280.3480 2278.4512 2276.1302 2274.0433 2272.1537 2269.8824 2267.7783 2265.7468 2264.0989 2261.8113 2259.5621 2257.7441 2255.5596 2253.5375 2251.4740 2249.6008 2247.3460 2245.2452 2243.2717 2240.9402 2239.0591 2236.9108 2235.0821 2232.8980 2230.7293 2228.6067 2226.6056 2224.5318 2222.4231 2220.7049 2218.6649 2216.2682 2214.4735 2212.5575 2210.0280 2208.2570 2206.1119 2204.2400 2201.7744 2200.1428 2197.6602 2195.7453 2193.6707 2191.7691 2189.7620 2187.4407 2185.2754 2183.6217 2181.3196 2179.4658 2177.4240 2175.1526 2173.1283 2170.9152 2169.1578 2166.9632 2164.7873 2162.6476 2160.5412 2158.7422 2156.6782 2154.4686 2152.4537 2150.3247 2148.5189 2146.2841 2144.3832 2142.1894 2140.0251 2138.2960 2135.8729 2134.0026 2131.8797 2129.7678 2127.7211 2125.6794 2123.6329 2121.4034 2119.4933 2117.4002 2115.1645 2113.3402 2111.3950 2109.0963 2106.8770 2104.9139 2102.8469 2100.8109 2098.6119 2096.8705 2094.9285 2092.7485 2090.5270 2088.7316 2086.6657 2084.5927 2082.3041 2080.2051 2078.4416 2076.3584 2074.3053 2071.8375 2070.1494 2067.9428 2065.8736 2063.8157 2061.9524 2059.6381 2057.3650 2055.7527 2053.4986 2051.4971 2049.5449 2047.1861 2045.2296 2043.0521 2040.8714 2038.9813 2036.8869 2034.7510 2032.6178 2031.0028 2028.6997 2026.5758 2024.7966 2022.7716 2020.2515 2018.2220 2016.4231 2014.3371 2012.2649 2009.9742 2008.1688 2006.2247 2003.9729 2001.9262 1999.8874 1997.8807 1995.5320 1993.8200 1991.7322 1989.6172 1987.3873 1985.5125 1983.4990 1981.4297 1979.2465 1976.9978 1975.0156 1973.1380 1971.0422 1968.9670 1966.7663 1964.6444 1962.6288 1960.7883 1958.4670 1956.4028 1954.4638 1952.2776 1950.2620 1948.0395 1946.2432 1944.1295 1942.1172 1940.0360 1937.9344 1935.8117 1934.0117 1931.9611 1929.5741 1927.6680 1925.5039 1923.5171 1921.5238 1919.1935 1917.1645 1915.1708 1913.1404 1911.2877 1908.9037 1907.0103 1904.8560 1902.9328 1900.6731 1898.8549 1896.5749 1894.7735 1892.3552 1890.7432 1888.2859 1886.2845 1884.2405 1882.1217 1880.0227 1878.1649 1876.1892 1874.1470 1871.8719 1869.7825 1867.9528 1865.7860 1863.8817 1861.7093 1859.3684 1857.4776 1855.4263 1853.3324 1851.5627 1849.0388 1846.9452 1845.2613 1843.1024 1841.2439 1838.8674 1836.7386 1834.9145 1832.9014 1830.6836 1828.7464 1826.7211 1824.6308 1822.3802 1820.4911 1818.2617 1816.1057 1814.1546 1812.0863 1809.9645 1807.9066 1805.8186 1804.1176 1801.8231 1799.6231 1799.5125 1801.8660 1804.0842 1806.0013 1808.1265 1810.3062 1812.3115 1814.1490 1816.2019 1818.0991 1820.5761 1822.6175 1824.3321 1826.6129 1828.8182 1830.6029 1832.5419 1834.6310 1836.8773 1839.0399 1841.1941 1843.0853 1844.9725
2363.4724 2361.7798 2359.2515 2357.2708 2355.1576 2353.3474 2351.2326 2348.9225 2347.1398 2344.9184 2343.0296 2340.7113 2339.0700 2336.7660 2334.4557 2332.3858 2330.7927 2328.4818 2326.3718 2324.5079 2322.1666 2320.3175 2318.2695 2316.1912 2314.2252 2312.1431 2309.7963 2307.8720 2305.7365 2303.8564 2301.4734 2299.7895 2297.5680 2295.2466 2293.4465 2291.1256 2289.1987 2287.2884 2285.1180 2283.1650 2280.7308 2278.8283 2276.7723 2274.7388 2272.5637 2270.8420 2268.7387 2266.5376 2264.2376 2262.4373 2260.2555 2258.4659 2256.2778 2253.8675 2252.2732 2249.9790 2247.8040 2246.0075 2243.9790 2241.5367 2239.8205 2237.5941 2235.5660 2233.3870 2231.2901 2229.2842 2227.4041 2225.1775 2223.1714 2221.1939 2218.7532 2216.6791 2214.6969 2212.9129 2210.9640 2208.8484 2206.6701 2204.5265 2202.3095 2200.5066 2198.3193 2196.5091 2194.0225 2192.0004 2190.3067 2188.0313 2185.7597 2183.6602 2181.8058 2179.9677 2177.4762 2175.4317 2173.6175 2171.6078 2169.5695 2167.0893 2165.3722 2162.9708 2161.0882 2159.0260 2157.0122 2155.1735 2152.6814 2150.6228 2148.9581 2146.4676 2144.6457 2142.7497 2140.2745 2138.4709 2136.3310 2134.2084 2132.3097 2129.9855 2128.2559 2125.8941 2123.7384 2122.0055 2119.7766 2117.7341 2115.6125 2113.8304 2111.6789 2109.4026 2107.3982 2105.3971 2103.1141 2101.2590 2098.9371 2096.9252 2095.0175 2092.8707 2090.6695 2088.8324 2086.6934 2084.6506 2082.3951 2080.4033 2078.2598 2076.6269 2074.3106 2072.1902 2070.1234 2067.9604 2066.1355 2063.9934 2062.1850 2059.6560 2057.6153 2055.9710 2053.7550 2051.6106 2049.7847 2047.6933 2045.5139 2043.4545 2041.5207 2039.2644 2037.2116 2035.2073 2033.0465 2030.7921 2028.8668 2026.8003 2024.9102 2022.4930 2020.7771 2018.5397 2016.6705 2014.3488 2012.2348 2010.3693 2008.0006 2006.0937 2004.1016 2002.0145 2000.1818 1998.0230 1995.8143 1993.7368 1991.8638 1989.4247 1987.7393 1985.7639 1983.4524 1981.1722 1979.3918 1977.3572 1975.2105 1973.0429 1970.8401 1969.0794 1967.1533 1964.6088 1962.6267 1960.9646 1958.8872 1956.6784 1954.5914 1952.2236 1950.5725 1948.1883 1946.2650 1944.0089 1942.2090 1940.0304 1937.7539 1936.1082 1934.0647 1931.5705 1929.7970 1927.8320 1925.6494 1923.4050 1921.4897 1919.4129 1917.2887 1915.2897 1913.2760 1911.0305 1908.9342 1907.0975 1905.1535 1903.1012 1900.8830 1898.5582 1896.4598 1894.7695 1892.7273 1890.2284 1888.6436 1886.4285 1884.3379 1882.1350 1880.1666 1878.2101 1875.7933 1873.8418 1871.8635 1869.5774 1867.5833 1865.5048 1863.6866 1861.3174 1859.3217 1857.2827 1855.2656 1853.4939 1850.9861 1849.3784 1847.3221 1845.0427 1843.0220 1840.8427 1838.6107 1836.9174 1834.8239 1832.4182 1830.6529 1828.7104 1826.5317 1824.4587 1822.0866 1820.3520 1818.0293 1816.0429 1814.0889 1812.1638 1810.1310 1807.8155 1805.7750 1803.5463 1801.6497 1799.4506 1797.5672 1797.2866 1799.3522 1801.5152 1803.6272 1805.7616 1807.8357 1809.8131 1812.1325 1814.0290 1816.1744 1818.1768 1820.1066 1822.2911 1824.2058 1826.5558 1828.4434 1830.8017 1832.6930 1834.7144 1836.5071 1838.7702 1841.0896 1843.1256
2362.0408 2360.2883 2358.1382 2356.2722 2354.2210 2352.1501 2349.6815 2347.9841 2345.7709 2343.7197 2341.6173 2339.4304 2337.2607 2335.2068 2333.0990 2331.4298 2328.9865 2327.2032 2325.1814 2322.8089 2320.9966 2318.6686 2316.5747 2314.5982 2312.5074 2310.6329 2308.5916 2306.1946 2304.5678 2302.2658 2300.4061 2297.9852 2295.9920 2294.1314 2291.7489 2289.6330 2287.6286 2285.7188 2283.6459 2281.6339 2279.3900 2277.3664 2275.4212 2273.0766 2271.2253 2269.2769 2267.1769 2264.8166 2263.1852 2260.7463 2258.6758 2256.5274 2254.6281 2252.4985 2250.6166 2248.4270 2246.5099 2244.5102 2242.1411 2240.4170 2237.9637 2235.8909 2233.7504 2232.0583 2229.8887 2227.6067 2225.5886 2223.4750 2221.6826 2219.6022 2217.6244 2215.2308 2213.4555 2211.0429 2209.2708 2207.2855 2205.0688 2202.8346 2200.9272 2198.5794 2196.6098 2194.8656 2192.4147 2190.2907 2188.2185 2186.2381 2184.4769 2182.4184 2180.2483 2177.8508 2176.2462 2173.7157 2171.9434 2169.9960 2167.5433 2165.8893 2163.4905 2161.3991 2159.4740 2157.6121 2155.2224 2153.3705 2150.9816 2149.0363 2146.9417 2144.9493 2143.0666 2140.7671 2138.7264 2136.7866 2134.8202 2132.4315 2130.3518 2128.3988 2126.1774 2124.5122 2122.4620 2120.0311 2118.0438 2116.1770 2113.7315 2112.0846 2110.0548 2107.6301 2105.5805 2103.3921 2101.6708 2099.6609 2097.2114 2095.3046 2093.0334 2091.3442 2088.9890 2087.1351 2084.7849 2082.8277 2080.8210 2078.8664 2076.5471 2074.8220 2072.7976 2070.5403 2068.3687 2066.5696 2064.1023 2061.9694 2060.2604 2057.8775 2056.2025 2054.1321 2051.7570 2050.0346 2047.8648 2045.5442 2043.8191 2041.5103 2039.4380 2037.4618 2035.1833 2033.0243 2031.1421 2029.0888 2027.0033 2024.7781 2022.9408 2020.9192 2018.7450 2016.7298 2014.6661 2012.7579 2010.7108 2008.5956 2006.2866 2004.2263 2002.3796 2000.2567 1998.1989 1996.1560 1994.0161 1991.9877 1989.7261 1987.8212 1985.4159 1983.5996 1981.4839 1979.5192 1977.4659 1975.1780 1973.2219 1970.9794 1969.0743 1967.0946 1964.8122 1962.6546 1960.9420 1958.8978 1956.8462 1954.4627 1952.5989 1950.5141 1948.2635 1946.5061 1944.2064 1942.1727 1939.9351 1938.2873 1935.9136 1933.7783 1931.6245 1929.7548 1927.7838 1925.8525 1923.5519 1921.4076 1919.6155 1917.4716 1915.0335 1913.2404 1911.1707 1908.8328 1907.2153 1904.8562 1902.8872 1900.7711 1898.5152 1896.8483 1894.7301 1892.3985 1890.3465 1888.4606 1886.2591 1884.3472 1882.2500 1880.1136 1877.9385 1875.7886 1873.6525 1871.7858 1869.7907 1867.7989 1865.4104 1863.2901 1861.5036 1859.1737 1857.4954 1855.0700 1853.2692 1851.2702 1849.1639 1847.1585 1844.9640 1843.0650 1840.5531 1838.5212 1836.5695 1834.8103 1832.4474 1830.4250 1828.2044 1826.2578 1824.3278 1822.3453 1820.0596 1817.9150 1816.0927 1813.9544 1811.6325 1809.7754 1807.6663 1805.4465 1803.3408 1801.5048 1799.3765 1797.4096 1795.2367 1795.0281 1797.3781 1799.2929 1801.3597 1803.6519 1805.7724 1807.7236 1809.6006 1811.6845 1813.8547 1815.8398 1818.0551 1819.9865 1821.9540 1824.4564 1826.3489 1828.2016 1830.4742 1832.5963 1834.5682 1836.4723 1838.6727 1840.7493
2361.0832 2358.9151 2356.7907 2354.5880 2352.6855 2350.6958 2348.6936 2346.6627 2344.3394 2342.4186 2340.4479 2337.9421 2335.9222 2334.1820 2331.8968 2329.9019 2327.9204 2325.7728 2323.6415 2321.3800 2319.4351 2317.1748 2315.3361 2313.3723 2311.2358 2309.0898 2306.9663 2304.8391 2302.7733 2300.8921 2298.8867 2296.8709 2294.7030 2292.7307 2290.5002 2288.3529 2286.1272 2284.1673 2282.3832 2280.2450 2277.8436 2276.0428 2274.1256 2271.7007 2269.6536 2267.8327 2265.7802 2263.7155 2261.2375 2259.4831 2257.4386 2255.1657 2253.2286 2251.2631 2248.8095 2246.8161 2244.6874 2242.9832 2240.7223 2238.7946 2236.4082 2234.3286 2232.5776 2230.3228 2228.1392 2226.0073 2224.1348 2221.9779 2220.1044 2218.0976 2215.6424 2213.8306 2211.6672 2209.5833 2207.4284 2205.3434 2203.5860 2201.5567 2199.1089 2197.0718 2195.0404 2193.0711 2190.7548 2189.0471 2186.7463 2184.6760 2182.8814 2180.4451 2178.6133 2176.3997 2174.4970 2172.1659 2170.3629 2168.3407 2165.8982 2163.7801 2161.7797 2160.0680 2157.6135 2155.6710 2153.7670 2151.4925 2149.6377 2147.3450 2145.4088 2143.0916 2141.4042 2139.3675 2137.0509 2134.9357 2132.6922 2131.0368 2128.6655 2126.9101 2124.5687 2122.8074 2120.6264 2118.2542 2116.1251 2114.4850 2112.4363 2110.0397 2108.0070 2106.2362 2104.0840 2102.0023 2099.5485 2097.6359 2095.4961 2093.5632 2091.2466 2089.3913 2087.1706 2085.4577 2083.1166 2081.2185 2078.9532 2076.8160 2074.7771 2073.0054 2070.5698 2068.9269 2066.5207 2064.4667 2062.4166 2060.4477 2058.1216 2056.1754 2054.2561 2052.1891 2050.1664 2047.7444 2045.8355 2043.7230 2041.7606 2039.7997 2037.5447 2035.3709 2033.3546 2031.4266 2029.2729 2027.3915 2025.2988 2023.3120 2020.7723 2018.9214 2016.9592 2015.0082 2012.8744 2010.6968 2008.4676 2006.6062 2004.6355 2002.3982 2000.2379 1998.2649 1996.0719 1994.1753 1991.8803 1989.7017 1987.8465 1985.9188 1983.8992 1981.6117 1979.5754 1977.2239 1975.2443 1973.3818 1971.0471 1969.2215 1967.2790 1965.2386 1962.8720 1960.9481 1958.7865 1956.7065 1954.5364 1952.4632 1950.4531 1948.4390 1946.3395 1944.4092 1942.3034 1940.2312 1938.3079 1936.2109 1933.9704 1931.7441 1930.0131 1927.6464 1925.8967 1923.7997 1921.3776 1919.6511 1917.4484 1915.2522 1912.9947 1911.2831 1909.0761 1907.0811 1904.8183 1903.0140 1900.9752 1898.7647 1896.7962 1894.7747 1892.4403 1890.1944 1888.5174 1886.2625 1884.0034 1882.0998 1879.9062 1877.7352 1876.1300 1873.8621 1871.8915 1869.9043 1867.3772 1865.5265 1863.4601 1861.2379 1859.1793 1856.9968 1855.1391 1853.3077 1850.9089 1849.0654 1847.0911 1845.0392 1842.8165 1840.7009 1838.7261 1836.4573 1834.5473 1832.3377 1830.3565 1828.4037 1826.3998 1824.2893 1821.8085 1819.7096 1817.7709 1815.7980 1813.5274 1811.7303 1809.6934 1807.7391 1805.2335 1803.3695 1801.3066 1799.3861 1797.3757 1794.9178 1792.7793 1793.1558 1795.2967 1796.9926 1798.9662 1801.5156 1803.1306 1805.5623 1807.4322 1809.3704 1811.5452 1813.8465 1815.5824 1817.8760 1819.9444 1821.8909 1823.9084 1826.3248 1828.4561 1830.2774 1832.3488 1834.2324 1836.7253 1838.7590
2359.4976 2357.5482 2355.4526 2353.2186 2351.1965 2349.2883 2347.1523 2345.2272 2342.7860 2340.8901 2338.7672 2336.6985 2334.7773 2332.7998 2330.7532 2328.5902 2326.2543 2324.2903 2322.2250 2320.3693 2318.3333 2316.1965 2314.1553 2312.0224 2309.8056 2307.8367 2305.4426 2303.4852 2301.3984 2299.4109 2297.4190 2295.4394 2293.2609 2291.1999 2288.9564 2286.7710 2285.0663 2283.0021 2280.7954 2278.8897 2276.5249 2274.4342 2272.4521 2270.1040 2268.1182 2266.3485 2264.0559 2262.1493 2259.8471 2257.8741 2255.9260 2253.8415 2251.5675 2249.7971 2247.2668 2245.6629 2243.3659 2241.4019 2239.1768 2237.2822 2234.8171 2232.8700 2230.6825 2228.9343 2226.6009 2224.5619 2222.7120 2220.5425 2218.2282 2216.1573 2214.4488 2212.3354 2210.0067 2208.1644 2205.8961 2203.8544 2202.0136 2199.5192 2197.8712 2195.7488 2193.5805 2191.3005 2189.3185 2187.1530 2185.3364 2183.2010 2181.0926 2178.8816 2176.9671 2175.0195 2172.5480 2170.7593 2168.5555 2166.5866 2164.5269 2162.2158 2160.1610 2158.0491 2156.3921 2153.9753 2152.0545 2149.9394 2147.8612 2145.9975 2143.8271 2141.7957 2139.4718 2137.5061 2135.3534 2133.3168 2131.0871 2129.4022 2126.9775 2125.1006 2123.0925 2121.0960 2118.8415 2116.4591 2114.6252 2112.6174 2110.2766 2108.1909 2106.1729 2104.3574 2102.1470 2099.8566 2098.1689 2095.8286 2094.1010 2091.7352 2089.8587 2087.8473 2085.4844 2083.4689 2081.2984 2079.1531 2077.2060 2075.2261 2073.2590 2071.1854 2069.1116 2066.9667 2064.6155 2062.6969 2060.4700 2058.5320 2056.2514 2054.2829 2052.3517 2050.0575 2048.1518 2046.0430 2044.1654 2041.9832 2039.6795 2037.9487 2035.6955 2033.8739 2031.6195 2029.5324 2027.6295 2025.1157 2023.0765 2020.9656 2018.8719 2017.0771 2015.1138 2012.7232 2010.8971 2008.6605 2006.5677 2004.5480 2002.6005 2000.6261 1998.4074 1996.5010 1994.4025 1992.1245 1989.9160 1987.8237 1985.9807 1983.6467 1981.5401 1979.6803 1977.5975 1975.3284 1973.2225 1971.3059 1969.3055 1967.2075 1965.2266 1962.9606 1960.8341 1958.7028 1956.8544 1954.8748 1952.5469 1950.4043 1948.6863 1946.3887 1944.6194 1942.1065 1940.0292 1938.1172 1935.9926 1933.9455 1932.0820 1929.8037 1927.9544 1925.8397 1923.6619 1921.6256 1919.3267 1917.2536 1915.1083 1913.3163 1911.3063 1909.0789 1906.7986 1905.1274 1902.9897 1900.9050 1898.9353 1896.8174 1894.2984 1892.5823 1890.3392 1888.3120 1886.0864 1884.0426 1882.1635 1880.0941 1877.6993 1875.8784 1873.5591 1871.9052 1869.7227 1867.4671 1865.3933 1863.5513 1861.4031 1859.4271 1857.2486 1855.0897 1853.1967 1850.8577 1848.6772 1846.9384 1844.5965 1842.4281 1840.7597 1838.6765 1836.5445 1834.1084 1832.4313 1829.9471 1828.1733 1825.9410 1823.8815 1821.8780 1819.6362 1817.9347 1815.8405 1813.6381 1811.7204 1809.3690 1807.3104 1805.2648 1803.0357 1801.1528 1799.2773 1796.9420 1794.9150 1792.9217 1790.5976 1790.5464 1792.9250 1795.1264 1796.7983 1799.2770 1801.0574 1803.3561 1805.4261 1807.4305 1809.4716 1811.4903 1813.7084 1815.4056 1817.5204 1819.6371 1821.6890 1823.7270 1825.8061 1828.1167 1829.9536 1832.2969 1834.3045 1836.3019
2358.4378 2356.1340 2354.3115 2352.2799 2349.7747 2347.6612 2345.6944 2343.7256 2341.4926 2339.3513 2337.6064 2335.1966 2333.2764 2331.3528 2329.1656 2326.9064 2324.8783 2322.7352 2320.6270 2318.6287 2316.6152 2314.5157 2312.3221 2310.5484 2308.3156 2306.3502 2303.9782 2302.3147 2300.1825 2298.1789 2295.8351 2293.6877 2291.6470 2289.6116 2287.6391 2285.6927 2283.2258 2281.3358 2279.4472 2276.9500 2275.2785 2273.0376 2271.1068 2268.9992 2266.6901 2264.9174 2262.4410 2260.4895 2258.4994 2256.2974 2254.5315 2252.0835 2250.0533 2248.0522 2246.1504 2243.7060 2241.8109 2239.6769 2237.8416 2235.4905 2233.7247 2231.5192 2229.4527 2227.0808 2225.2525 2223.1975 2220.9594 2219.0011 2217.0900 2214.7253 2212.8122 2210.8339 2208.4588 2206.5678 2204.3320 2202.5502 2200.3138 2197.9169 2196.0891 2193.9312 2192.1220 2190.0694 2187.8061 2185.4965 2183.5867 2181.5344 2179.5496 2177.5677 2175.3811 2173.1923 2171.3438 2168.9603 2166.8954 2164.8733 2162.9374 2160.5551 2158.7183 2156.3976 2154.3316 2152.4496 2150.3330 2148.3106 2145.9582 2144.2645 2142.1711 2140.0380 2137.8114 2135.7196 2133.5419 2131.5159 2129.3783 2127.2349 2125.2103 2123.1022 2121.0082 2119.3625 2116.8428 2115.1081 2113.1377 2110.5771 2108.5233 2106.8843 2104.6089 2102.5191 2100.3268 2098.4033 2096.3724 2094.3282 2091.8635 2089.9507 2087.7808 2085.7361 2083.5951 2081.5575 2079.4881 2077.5288 2075.2280 2073.3659 2071.5262 2069.0623 2067.3427 2065.1222 2063.1228 2060.8605 2058.8226 2056.6620 2054.6406 2052.4443 2050.4968 2048.3705 2046.4193 2044.4618 2042.0777 2039.9914 2037.8607 2035.9124 2033.7188 2031.7717 2029.6840 2027.4339 2025.6207 2023.5502 2021.6298 2019.3028 2017.3010 2014.9750 2013.0046 2011.0930 2009.1590 2006.8883 2004.9365 2002.4814 2000.5025 1998.3905 1996.2923 1994.1391 1992.0724 1989.9909 1987.9273 1985.9574 1983.8472 1981.9991 1979.9778 1977.5754 1975.8805 1973.5600 1971.7151 1969.4811 1967.5421 1965.1355 1962.9141 1960.8702 1958.9580 1956.6994 1955.0293 1952.6124 1950.8563 1948.5147 1946.6736 1944.4850 1942.4121 1940.1909 1938.0453 1936.0666 1933.9221 1932.1445 1929.9429 1927.8518 1925.5797 1923.8920 1921.7971 1919.4089 1917.2346 1915.5576 1913.0161 1911.3805 1909.2689 1907.2497 1904.9650 1902.7039 1900.7513 1898.4833 1896.4741 1894.6049 1892.5261 1890.3604 1888.1526 1886.1993 1884.2131 1882.1958 1879.7928 1877.7726 1875.8445 1873.8334 1871.5283 1869.3817 1867.4674 1865.3165 1863.5366 1861.0898 1859.2998 1856.9971 1855.1226 1852.7259 1850.7652 1848.6235 1846.7943 1844.4811 1842.4211 1840.3270 1838.2361 1836.2951 1834.4712 1832.3694 1830.0532 1828.0534 1825.8224 1824.0459 1821.8686 1819.4754 1817.6754 1815.3471 1813.4982 1811.2398 1809.1994 1807.2806 1805.1876 1803.0733 1800.8587 1798.7224 1796.8397 1794.8604 1792.7479 1790.5458 1788.4008 1788.6663 1790.5653 1792.8698 1794.7765 1796.6733 1798.7537 1800.8647 1802.7941 1805.2519 1807.0853 1809.1154 1811.2501 1813.5226 1815.4531 1817.7871 1819.4699 1821.7183 1823.8784 1825.8878 1827.7859 1829.8824 1832.3112 1834.2420
2357.0830 2354.8368 2352.5460 2350.6795 2348.7981 2346.4823 2344.3084 2342.1241 2340.4561 2338.2797 2336.0752 2333.9024 2331.9511 2329.6853 2327.6472 2325.7467 2323.6052 2321.6068 2319.2731 2317.5313 2315.4790 2313.3612 2311.1142 2309.1240 2306.8233 2304.9681 2302.5771 2300.7808 2298.4440 2296.6982 2294.3649 2292.3156 2290.3356 2288.4448 2286.0369 2283.7911 2282.0367 2279.8201 2277.9512 2275.4881 2273.7085 2271.3357 2269.5120 2267.2898 2265.2048 2263.3506 2261.2313 2259.1969 2257.1478 2254.9930 2252.7802 2250.5274 2248.5798 2246.4643 2244.6352 2242.2701 2240.0544 2238.2112 2236.1316 2234.2176 2232.0479 2229.9319 2227.7653 2225.6582 2223.5724 2221.4592 2219.5385 2217.4277 2215.0945 2213.3856 2211.2690 2208.9147 2207.0926 2205.0674 2202.6426 2200.6673 2198.4854 2196.5745 2194.7063 2192.1572 2190.2075 2187.9971 2186.0396 2184.0752 2182.1593 2179.7804 2177.7412 2175.7924 2173.6001 2171.5242 2169.2673 2167.3033 2165.2479 2163.0123 2161.0266 2159.2710 2156.9138 2154.9475 2152.8180 2150.6986 2148.5702 2146.5635 2144.3587 2142.5522 2140.2278 2138.3844 2136.0808 2134.1614 2131.9996 2129.9718 2127.8901 2125.6422 2123.5808 2121.5901 2119.2669 2117.4885 2115.4167 2113.1079 2111.2324 2109.1897 2107.1433 2104.9378 2102.6923 2100.6159 2098.6443 2096.7503 2094.6295 2092.4859 2090.3793 2088.1663 2086.0459 2084.3032 2082.2281 2080.0396 2078.0187 2075.9976 2073.9093 2071.8242 2069.2906 2067.6318 2065.1312 2063.1698 2061.1508 2058.8620 2056.9684 2055.0608 2052.6316 2050.5833 2048.5559 2046.3841 2044.6280 2042.3586 2040.2286 2038.1750 2035.9653 2033.9611 2031.8986 2029.7058 2027.6072 2025.6148 2023.9055 2021.8077 2019.2716 2017.3411 2015.3759 2013.3337 2011.0192 2009.2827 2007.0294 2004.7886 2003.0567 2000.7358 1998.4783 1996.4489 1994.6859 1992.2862 1990.1601 1988.4385 1986.3392 1984.0333 1982.2486 1980.0608 1978.0173 1975.9450 1973.5553 1971.3661 1969.7152 1967.3987 1965.3824 1963.4080 1961.3669 1959.1123 1957.2300 1954.8615 1952.9480 1950.8135 1948.6027 1946.7628 1944.7670 1942.6656 1940.1951 1938.3866 1935.9760 1934.3218 1931.9265 1929.7153 1927.7040 1925.5375 1923.5320 1921.4278 1919.6509 1917.3504 1915.4284 1913.3856 1911.2338 1909.2120 1906.9177 1904.7673 1903.0714 1900.6281 1898.5925 1896.8077 1894.4060 1892.4188 1890.4508 1888.5320 1886.4403 1883.9660 1882.1314 1879.7740 1878.1123 1875.7936 1873.6101 1871.7100 1869.6346 1867.6759 1865.5569 1863.2267 1861.2916 1859.3198 1857.1976 1855.2128 1852.9117 1850.8912 1848.7608 1846.7519 1844.7620 1842.6974 1840.2969 1838.4917 1836.0717 1834.3565 1831.9980 1829.9645 1827.8694 1825.9024 1823.6626 1821.7824 1819.3081 1817.2564 1815.3078 1813.4665 1811.1352 1809.1212 1807.1641 1805.1000 1803.0103 1800.6700 1798.7788 1796.4074 1794.5626 1792.5274 1790.2442 1788.3996 1786.1100 1786.1744 1788.1245 1790.2814 1792.3450 1794.4013 1796.4788 1798.6633 1800.8162 1802.7121 1804.8965 1807.1987 1809.0228 1811.1504 1813.0674 1815.3645 1817.4881 1819.3080 1821.4843 1823.6583 1825.6589 1828.0690 1829.7462 1832.0697
2355.6364 2353.6576 2351.2936 2349.2155 2347.4163 2345.0213 2343.1494 2341.1937 2338.9688 2336.8195 2334.7778 2332.7653 2330.4848 2328.5815 2326.1852 2324.4417 2321.9805 2319.9778 2318.1359 2315.8373 2313.9270 2311.8899 2309.8666 2307.8587 2305.4679 2303.6286 2301.6023 2299.3858 2297.1040 2295.3316 2292.9253 2290.8224 2288.8867 2286.7187 2284.4543 2282.3632 2280.6717 2278.3153 2276.0827 2274.1371 2271.9158 2270.2403 2268.0169 2265.6558 2263.5698 2261.5306 2259.6591 2257.5198 2255.5494 2253.5449 2251.3259 2249.2762 2246.9527 2245.1558 2242.8765 2240.7235 2238.7318 2236.8351 2234.7375 2232.5538 2230.1895 2228.3556 2226.0806 2224.1318 2222.1189 2220.0005 2217.8961 2215.9629 2213.8688 2211.4757 2209.6432 2207.4785 2205.5911 2203.2639 2201.2866 2199.2702 2196.8877 2194.9856 2192.9491 2190.9404 2188.8721 2186.6684 2184.3351 2182.5591 2180.3698 2178.1736 2176.0770 2174.0071 2172.2299 2170.1373 2167.9264 2165.6777 2163.7059 2161.3939 2159.6545 2157.5141 2155.1912 2153.3792 2151.3675 2149.2828 2147.0464 2144.9108 2143.0314 2140.5293 2138.5352 2136.4487 2134.4175 2132.5275 2130.2381 2127.9858 2126.2884 2124.2023 2121.9007 2119.9828 2117.8590 2115.5253 2113.7041 2111.7364 2109.2441 2107.1814 2105.1655 2103.4068 2101.3116 2098.9460 2097.1436 2094.6893 2092.9725 2090.7475 2088.6125 2086.5179 2084.4455 2082.4758 2080.0364 2078.0199 2076.0450 2074.1986 2071.8746 2069.5447 2067.6347 2065.4032 2063.2990 2061.6654 2059.3723 2057.1498 2055.2107 2052.9228 2051.1503 2049.1413 2046.9672 2044.7195 2042.7588 2040.4615 2038.3005 2036.3753 2034.4820 2032.2009 2030.2499 2028.3026 2025.7784 2024.1337 2021.6223 2019.8722 2017.6489 2015.3560 2013.5525 2011.4123 2009.0701 2007.1403 2005.2700 2002.9263 2000.8630 1998.7974 1996.9416 1994.7416 1992.7031 1990.5489 1988.5691 1986.4940 1984.1676 1982.3843 1980.2445 1978.0939 1975.9546 1973.7888 1971.8021 1969.4449 1967.7670 1965.5351 1963.3554 1961.2608 1959.2380 1956.8867 1954.9641 1952.9914 1950.8182 1948.9592 1946.4735 1944.6716 1942.6955 1940.4018 1938.2318 1936.4504 1934.1958 1932.0645 1930.0467 1927.9357 1926.0287 1923.5580 1921.8084 1919.3357 1917.6161 1915.3514 1913.4683 1911.2297 1909.1074 1907.0609 1905.0769 1903.0073 1900.7063 1898.8187 1896.4520 1894.5793 1892.2118 1890.1771 1888.2742 1886.0190 1884.0667 1881.9359 1879.7247 1877.8022 1875.6176 1873.8711 1871.6850 1869.7170 1867.6178 1865.1961 1863.0348 1861.2396 1859.0131 1856.8932 1854.9179 1852.9234 1850.7721 1848.7086 1846.3360 1844.6850 1842.2626 1840.1128 1838.2759 1836.2675 1834.0748 1831.9624 1829.6611 1827.6726 1825.6728 1823.5694 1821.4949 1819.4906 1817.1161 1815.3757 1812.9366 1810.8870 1808.8159 1807.0746 1804.6292 1802.8180 1800.5819 1798.7093 1796.6655 1794.2602 1792.5082 1790.3410 1788.3619 1786.0624 1784.1507 1783.9905 1786.0202 1787.9654 1790.0018 1792.4904 1794.4739 1796.5920 1798.5033 1800.8336 1802.6351 1804.5954 1806.7663 1808.8869 1810.8894 1812.9464 1815.4416 1817.2044 1819.5036 1821.4603 1823.5282 1825.8267 1827.9953 1829.8881
2354.4271 2352.1762 2349.9259 2347.8608 2346.0493 2343.8410 2341.9490 2339.4632 2337.3488 2335.6850 2333.6232 2331.2903 2328.9663 2327.2582 2324.9614 2323.1748 2320.7652 2318.6741 2316.7288 2314.4518 2312.5834 2310.6334 2308.3154 2306.2542 2304.1108 2301.9191 2299.7802 2297.8265 2295.8036 2293.6020 2291.7289 2289.5049 2287.1953 2285.1982 2283.4224 2281.1797 2278.8028 2276.9943 2275.0700 2272.8537 2270.5567 2268.5497 2266.4771 2264.6311 2262.1549 2260.1318 2257.9906 2256.2057 2253.7629 2251.9137 2249.9257 2247.9500 2245.6627 2243.6695 2241.5832 2239.2992 2237.4917 2235.3125 2233.3103 2231.1730 2228.9860 2226.7691 2224.4766 2222.4784 2220.7243 2218.1992 2216.1200 2214.1995 2211.9957 2210.1802 2207.7563 2205.9482 2203.8868 2201.7860 2199.7929 2197.5320 2195.5008 2193.2620 2191.4017 2189.1443 2187.3130 2185.0268 2182.7575 2180.6050 2178.9794 2176.6133 2174.5571 2172.3848 2170.4708 2168.1933 2166.0041 2164.0519 2162.2727 2159.8265 2157.9311 2155.9506 2153.5264 2151.5466 2149.2576 2147.2917 2145.1974 2143.4053 2140.8943 2138.8580 2136.8879 2134.6624 2132.9376 2130.4819 2128.3456 2126.4255 2124.2745 2122.5083 2120.2683 2118.1986 2115.9164 2113.7993 2111.6358 2109.9921 2107.8313 2105.3730 2103.7125 2101.2776 2099.2803 2097.1951 2095.1089 2093.1475 2090.8045 2089.0043 2086.9898 2084.5675 2082.7429 2080.4146 2078.5279 2076.1374 2074.2854 2072.1540 2070.0142 2068.2346 2065.7733 2063.9285 2061.6804 2059.5931 2057.6267 2055.5242 2053.3918 2051.0377 2049.0034 2047.0804 2044.8800 2043.1635 2040.6887 2038.7059 2036.5097 2034.7735 2032.6050 2030.2682 2028.4501 2026.0587 2024.0170 2022.1450 2019.8367 2018.0607 2015.7376 2013.5592 2011.7576 2009.5750 2007.1906 2005.3071 2003.0878 2001.3583 1999.0656 1996.8423 1994.6439 1992.5223 1990.8005 1988.3469 1986.5074 1984.3997 1982.1611 1980.1249 1978.2804 1976.2930 1973.8274 1971.9363 1969.5632 1967.4948 1965.7434 1963.5285 1961.5534 1959.3058 1957.1794 1954.9750 1952.8196 1951.2131 1948.8416 1946.8521 1944.8489 1942.4104 1940.7303 1938.2963 1936.1693 1934.4326 1932.3484 1930.3119 1928.1393 1925.8863 1923.7829 1921.6778 1919.6985 1917.7121 1915.3703 1913.1806 1911.0635 1909.2700 1907.1968 1904.9379 1903.0392 1900.7372 1898.8274 1896.6538 1894.5960 1892.7044 1890.2042 1888.0595 1886.1219 1884.1995 1882.0509 1879.8847 1877.7919 1875.7436 1873.7228 1871.6290 1869.2811 1867.5336 1865.3144 1863.2961 1860.9413 1859.1488 1856.8760 1854.9201 1852.8228 1850.6419 1848.6465 1846.5170 1844.6109 1842.2484 1840.1146 1838.3588 1835.8120 1834.1771 1831.9035 1829.9182 1827.4717 1825.7179 1823.6005 1821.3708 1819.4736 1817.3973 1815.0305 1813.1727 1811.0309 1808.9339 1807.0205 1804.6939 1802.8453 1800.2926 1798.6106 1796.2097 1794.1248 1791.9915 1790.0037 1787.9751 1785.7865 1783.7062 1781.4734 1781.5926 1783.6196 1786.0947 1787.7962 1789.9398 1792.2035 1794.0860 1796.1560 1798.6282 1800.4339 1802.7505 1804.8853 1806.8530 1808.7612 1811.1593 1813.1839 1815.2053 1817.0723 1819.1470 1821.2537 1823.5691 1825.7925 1827.8318
2352.8042 2350.7807 2348.8024 2346.8807 2344.7557 2342.3483 2340.6116 2338.4806 2336.1968 2333.9704 2332.1953 2329.9944 2327.9308 2325.9022 2323.7406 2321.4861 2319.4943 2317.1937 2315.4402 2313.1942 2311.1873 2308.9619 2306.7546 2304.5752 2302.8076 2300.6952 2298.2683 2296.2807 2294.4890 2292.1705 2290.0170 2288.3026 2285.9434 2283.6540 2281.6789 2279.5130 2277.5702 2275.6040 2273.4212 2271.4513 2269.2414 2266.9309 2264.9993 2262.8600 2261.0743 2258.6870 2256.6034 2254.5155 2252.4520 2250.5908 2248.3841 2246.3082 2243.8803 2241.8737 2240.0635 2237.8328 2235.9270 2233.5865 2231.7202 2229.3548 2227.2342 2225.1454 2223.0239 2221.0708 2219.0097 2216.9798 2214.6415 2212.5474 2210.4563 2208.7260 2206.6389 2204.2274 2202.3570 2200.3321 2198.0818 2196.1519 2193.6826 2191.7819 2189.6442 2187.7269 2185.3755 2183.2132 2181.2624 2179.1005 2176.9085 2175.0437 2172.8280 2170.9617 2168.5763 2166.7773 2164.3585 2162.2312 2160.2126 2158.2314 2156.4004 2153.9297 2152.1199 2150.0285 2147.6847 2145.6931 2143.8836 2141.5712 2139.4590 2137.2006 2135.1816 2133.1347 2131.0819 2128.7900 2126.7415 2124.7500 2122.6610 2120.5684 2118.4938 2116.3230 2114.5317 2112.4185 2110.2674 2108.1678 2106.0652 2103.9047 2101.7762 2099.8823 2097.3696 2095.6768 2093.1954 2091.2773 2089.4478 2086.9143 2085.0302 2082.8033 2080.8107 2078.9264 2076.7193 2074.4708 2072.6258 2070.3736 2068.1257 2066.3882 2063.8890 2061.8492 2059.9967 2057.9786 2055.6590 2053.7995 2051.7777 2049.3438 2047.4379 2045.3728 2043.4029 2040.8977 2038.9553 2037.0433 2034.5877 2032.8427 2030.5425 2028.7077 2026.4675 2024.5000 2022.1311 2020.0972 2017.9745 2016.1890 2014.0565 2011.5680 2009.7997 2007.3679 2005.5708 2003.5922 2001.3606 1999.2469 1996.9905 1995.1341 1992.8842 1990.8197 1988.5592 1986.5789 1984.7592 1982.4815 1980.3978 1978.5402 1975.9996 1974.1307 1971.8653 1969.9523 1967.6315 1965.9337 1963.6612 1961.3295 1959.4547 1957.3777 1955.1470 1953.3539 1951.0075 1948.8714 1946.7823 1944.7625 1942.5798 1940.7410 1938.5176 1936.4725 1934.1820 1932.3513 1929.9258 1927.9974 1926.1370 1923.9021 1921.7184 1919.8923 1917.6862 1915.7165 1913.3074 1911.2894 1909.1289 1907.0068 1905.1686 1902.8741 1900.7406 1898.9408 1896.5560 1894.4503 1892.6221 1890.3357 1888.1362 1886.3925 1883.9536 1881.8338 1879.7902 1878.0367 1875.7975 1873.5999 1871.4596 1869.4254 1867.4289 1865.4434 1862.9716 1860.8445 1859.2099 1856.9995 1854.7713 1852.8495 1850.6206 1848.3246 1846.6092 1844.3129 1842.2678 1840.2689 1838.0651 1836.1430 1833.7542 1831.7176 1829.6928 1827.6207 1825.3053 1823.3573 1821.1287 1819.2341 1817.3714 1814.8935 1813.1434 1810.7358 1808.7295 1806.9000 1804.3428 1802.4275 1800.3428 1798.1360 1796.0367 1793.8941 1791.9470 1789.8746 1787.6239 1785.8557 1783.8416 1781.3476 1779.3156 1779.3998 1781.6221 1783.5529 1785.7111 1787.7602 1790.0062 1792.2673 1793.8970 1796.4071 1798.4909 1800.4249 1802.5928 1804.5098 1806.6472 1808.9789 1810.8439 1812.8789 1815.0716 1817.2528 1819.2590 1821.3507 1823.6366 1825.6449
2351.5830 2349.6374 2347.3859 2345.1478 2343.0369 2341.3358 2339.1399 2336.7740 2334.6909 2332.7948 2330.5519 2328.3760 2326.3549 2324.3217 2322.2341 2319.9292 2318.1139 2316.1828 2313.6746 2311.8973 2309.6640 2307.7416 2305.6129 2303.2660 2301.2804 2298.9466 2296.9352 2294.8670 2293.0236 2290.7593 2288.5745 2286.8249 2284.6009 2282.2200 2280.4955 2278.0085 2276.0738 2274.1992 2271.8194 2269.6246 2267.6185 2265.6472 2263.6721 2261.2606 2259.4174 2257.0778 2255.2860 2253.1813 2250.7941 2248.9665 2246.9723 2244.4945 2242.4551 2240.5950 2238.4039 2236.4083 2234.3281 2232.2379 2230.1844 2227.7414 2225.7387 2223.6478 2221.5856 2219.4176 2217.2191 2215.4501 2213.2086 2211.1240 2209.0160 2207.1259 2204.6207 2202.5182 2200.7234 2198.7298 2196.4229 2194.2009 2192.4523 2190.1353 2187.8869 2185.8372 2183.9545 2181.5576 2179.5273 2177.7858 2175.7211 2173.6105 2171.2942 2169.2382 2167.2081 2165.1990 2162.7582 2161.0003 2158.7641 2156.3954 2154.7037 2152.2962 2150.4186 2148.2669 2145.9465 2144.2477 2142.0548 2140.0123 2137.8507 2135.8123 2133.6038 2131.6357 2129.6193 2127.4740 2125.3311 2122.9471 2121.0981 2118.9707 2116.9479 2114.9278 2112.4180 2110.6454 2108.3744 2106.2165 2104.1137 2102.1479 2099.8287 2098.1206 2095.6230 2093.7755 2091.4272 2089.3940 2087.3275 2085.5378 2083.0875 2081.1314 2079.2321 2076.9285 2074.9931 2073.0311 2070.9121 2068.7746 2066.7484 2064.2580 2062.5487 2060.1115 2058.1828 2055.8473 2053.8371 2052.0738 2049.6933 2047.6982 2045.7177 2043.3763 2041.3555 2039.0977 2037.1175 2035.1297 2032.9337 2031.0566 2028.7684 2026.7923 2024.7350 2022.2816 2020.4966 2018.1369 2016.2076 2014.1012 2011.9309 2009.7541 2008.0029 2005.7540 2003.5094 2001.2934 1999.2518 1997.5183 1995.0108 1993.3159 1990.9224 1988.9719 1987.0900 1984.5450 1982.8827 1980.4508 1978.5320 1976.2942 1974.4753 1972.0277 1970.0108 1968.1283 1965.6315 1963.8523 1961.4487 1959.7219 1957.5757 1955.3404 1953.5470 1951.2332 1948.8606 1947.0510 1944.8603 1942.6226 1940.5142 1938.7512 1936.7326 1934.2319 1932.5483 1930.1517 1927.9813 1926.1412 1923.8002 1921.9392 1919.6492 1917.6192 1915.6822 1913.3691 1911.4263 1909.1796 1907.2688 1904.9935 1902.9853 1901.0194 1898.5630 1896.5982 1894.5485 1892.7228 1890.4141 1888.5189 1886.0071 1884.3324 1881.8068 1880.1080 1877.7811 1875.6960 1873.8195 1871.3673 1869.5790 1867.1516 1865.0774 1862.9701 1861.2830 1859.0500 1857.0751 1854.9219 1852.6038 1850.7484 1848.7268 1846.2575 1844.3564 1842.2802 1840.3027 1838.1165 1835.8837 1833.7726 1831.8744 1829.8390 1827.7283 1825.5054 1823.3879 1821.0934 1819.3525 1817.2136 1815.1197 1812.6967 1810.5561 1808.8618 1806.7565 1804.3367 1802.3585 1800.3033 1798.4048 1796.1252 1794.0320 1791.6755 1789.5975 1787.5326 1785.3556 1783.2515 1781.3169 1779.3238 1777.3134 1777.4379 1779.1825 1781.5159 1783.6949 1785.5750 1787.7195 1789.7560 1792.1187 1794.0146 1796.0444 1798.3872 1800.2970 1802.2951 1804.5145 1806.6714 1808.5148 1810.9943 1812.6262 1815.1734 1817.2792 1818.9262 1821.2134 1823.1898
2350.3186 2348.3966 2346.1864 2344.1156 2341.7168 2339.9187 2337.7289 2335.7704 2333.5186 2331.5361 2329.3754 2326.9854 2325.0287 2323.0778 2320.9090 2318.9400 2316.6221 2314.4493 2312.4098 2310.1277 2308.1601 2306.2346 2303.8660 2302.1905 2299.8772 2297.6719 2295.5846 2293.4773 2291.6855 2289.5497 2287.3271 2285.2741 2283.0228 2280.8233 2278.9497 2276.6498 2274.8829 2272.6977 2270.5127 2268.5025 2266.4932 2264.2773 2262.0253 2260.1682 2257.9418 2255.8005 2253.5251 2251.6739 2249.2420 2247.2425 2245.0877 2243.2421 2241.0693 2238.9379 2236.9906 2234.5770 2232.6079 2230.7392 2228.5276 2226.3740 2224.0585 2221.9721 2220.0609 2217.8779 2216.0197 2213.7068 2211.4688 2209.7540 2207.3867 2205.5302 2203.3658 2201.2935 2199.0513 2196.8782 2195.1020 2192.7122 2190.4450 2188.8012 2186.3911 2184.4984 2182.4611 2180.0825 2178.2962 2175.9241 2173.9985 2171.5680 2169.7629 2167.7664 2165.5546 2163.3633 2161.4702 2159.1414 2156.9763 2155.0727 2153.0343 2150.8839 2148.4569 2146.4307 2144.5562 2142.1764 2140.1893 2138.0880 2136.3341 2133.8578 2131.8948 2130.0399 2127.6287 2125.8123 2123.3162 2121.3582 2119.1431 2116.9802 2115.1046 2112.8101 2110.9012 2108.7035 2106.6324 2104.8518 2102.3859 2100.5790 2098.0800 2096.0563 2094.0247 2091.8250 2089.8635 2088.0350 2085.6459 2083.6005 2081.5297 2079.5093 2077.5161 2075.1843 2072.8935 2071.0502 2069.0478 2066.7888 2064.9271 2062.8377 2060.7500 2058.4122 2056.2637 2053.9954 2052.1209 2049.7664 2048.0589 2045.9405 2043.8923 2041.3754 2039.6500 2037.3970 2035.3523 2033.0568 2030.9646 2029.2627 2027.0657 2025.0662 2022.5583 2020.4056 2018.7450 2016.4313 2014.2070 2012.3412 2010.1809 2008.0045 2005.7577 2003.9420 2001.9256 1999.4512 1997.2865 1995.3931 1993.4552 1991.2127 1988.8735 1987.2194 1984.7130 1982.9413 1980.5948 1978.8709 1976.5707 1974.5996 1972.1396 1970.3848 1968.3351 1965.9886 1964.0841 1961.8330 1959.5424 1957.8427 1955.3936 1953.5505 1951.1973 1949.1220 1946.9109 1945.2627 1942.9987 1940.6910 1938.6948 1936.8428 1934.2893 1932.2751 1930.1656 1928.3920 1926.0509 1924.1800 1921.8308 1919.6760 1917.5229 1915.4904 1913.5945 1911.6375 1909.2937 1907.4412 1905.2318 1902.9605 1900.8783 1898.9305 1896.8985 1894.4701 1892.7493 1890.5486 1888.1497 1886.0864 1884.3726 1881.8102 1880.0126 1877.8425 1875.8679 1873.6453 1871.5582 1869.4167 1867.2440 1865.1783 1863.3506 1861.1489 1858.7469 1856.6466 1854.7972 1852.6495 1850.4447 1848.4678 1846.3066 1844.0470 1842.0614 1840.1848 1838.0700 1835.6184 1833.8468 1831.8066 1829.5662 1827.4273 1825.3790 1823.0135 1821.0486 1819.1502 1816.7886 1815.0740 1812.5268 1810.6294 1808.5227 1806.2332 1804.2988 1802.0720 1799.9503 1797.8596 1795.9980 1793.9029 1791.5956 1789.5217 1787.7555 1785.4088 1783.3052 1781.4216 1779.1908 1777.0723 1775.0628 1774.8255 1777.1831 1779.0935 1781.2653 1783.2851 1785.4713 1787.8051 1789.8398 1791.9651 1793.7965 1796.0812 1798.2867 1799.9165 1802.3228 1804.4307 1806.3309 1808.4421 1810.4165 1812.6841 1815.0534 1817.1488 1819.2653 1820.9979
2349.1620 2346.9482 2344.8456 2342.4571 2340.4527 2338.6261 2336.4855 2334.2378 2332.1892 2329.9839 2328.0599 2326.0137 2323.7106 2321.7347 2319.7113 2317.3450 2315.2541 2313.2414 2311.2236 2308.9321 2306.7449 2304.9901 2302.7502 2300.7524 2298.5458 2296.2761 2294.1468 2292.1707 2290.1407 2287.7527 2285.9955 2283.9343 2281.4626 2279.6811 2277.3086 2275.0941 2273.1877 2271.1003 2268.9262 2267.0260 2264.9928 2262.5557 2260.6057 2258.4450 2256.4813 2254.5030 2251.9970 2249.8613 2247.8089 2246.1219 2243.9833 2241.7234 2239.7147 2237.6342 2235.1614 2233.1573 2230.9979 2228.8349 2226.7310 2224.6508 2222.6591 2220.8124 2218.4855 2216.6405 2214.5837 2212.1297 2210.2322 2207.8706 2205.9752 2203.8838 2201.6267 2199.4322 2197.6175 2195.4343 2193.5402 2191.3811 2189.3176 2187.0403 2184.8973 2182.6315 2180.6731 2178.5058 2176.4575 2174.4965 2172.4824 2170.2783 2167.9290 2166.2014 2163.9084 2161.6467 2159.8653 2157.5127 2155.2941 2153.4963 2151.1827 2149.1796 2146.9347 2144.9614 2142.7580 2140.8262 2138.4115 2136.6537 2134.2119 2132.2711 2130.4431 2128.3355 2125.7962 2123.8344 2121.8286 2119.7047 2117.3841 2115.2786 2113.4921 2111.1399 2109.3871 2107.0254 2105.2253 2103.0030 2100.6346 2098.8441 2096.8042 2094.6577 2092.4667 2090.2518 2088.1049 2086.1262 2083.7603 2081.7163 2079.7199 2077.4838 2075.3586 2073.4530 2071.4613 2069.1454 2067.2105 2064.7985 2063.1655 2061.0139 2058.8390 2056.5887 2054.3253 2052.2053 2050.3486 2048.0380 2046.2301 2044.1004 2041.7220 2039.8421 2037.5192 2035.3959 2033.2497 2031.5206 2029.4127 2026.9851 2024.9948 2022.8863 2020.6707 2018.9935 2016.4960 2014.6115 2012.4356 2010.1360 2007.9999 2006.2290 2003.9605 2001.8462 1999.8026 1997.5330 1995.3804 1993.3304 1991.4445 1989.1144 1987.1975 1985.2515 1983.1570 1980.7170 1979.0098 1976.8627 1974.3766 1972.3144 1970.2319 1968.5050 1966.0589 1964.0647 1962.1404 1960.1169 1958.0024 1955.8155 1953.6196 1951.5162 1949.4414 1947.2973 1944.9434 1942.9580 1940.6979 1938.7887 1936.9299 1934.7727 1932.5724 1930.6374 1928.3788 1926.1645 1924.2655 1922.0432 1919.6877 1917.9691 1915.6265 1913.4068 1911.5249 1909.5276 1907.2691 1904.9817 1903.0568 1900.9937 1898.7703 1896.6147 1894.6995 1892.3986 1890.4868 1888.1357 1886.2600 1884.2034 1882.0122 1880.0409 1877.6501 1875.6416 1873.4390 1871.6188 1869.2171 1867.5269 1865.4793 1863.2411 1860.9209 1858.6866 1856.7697 1854.8625 1852.5458 1850.2747 1848.2782 1846.5372 1844.2229 1841.8632 1839.8594 1837.9651 1835.7384 1833.5541 1831.3937 1829.3743 1827.2780 1825.1777 1822.9538 1821.0264 1818.9418 1816.9883 1814.7809 1812.7864 1810.6762 1808.6632 1806.4601 1804.0017 1802.1489 1799.9966 1798.1216 1795.8054 1793.4893 1791.8388 1789.4084 1787.4181 1785.1120 1783.3633 1781.3205 1778.9024 1776.8958 1774.6289 1772.5022 1772.8523 1774.8215 1776.9590 1779.1206 1781.3452 1783.2801 1785.4538 1787.3050 1789.3068 1791.3940 1793.6104 1795.7404 1798.1828 1800.0641 1801.9719 1804.4349 1806.5752 1808.6949 1810.6908 1812.5874 1814.8075 1817.0391 1818.8390
2347.5254 2345.6749 2343.5416 2341.3906 2339.0726 2337.0838 2334.9782 2332.6267 2330.8461 2328.5757 2326.6646 2324.2236 2322.3470 2320.1564 2318.0592 2316.0688 2313.8926 2311.8227 2309.8576 2307.6521 2305.2890 2303.1500 2301.1534 2299.2878 2297.1497 2294.9880 2292.9302 2290.6424 2288.5085 2286.2812 2284.4571 2282.3796 2280.2874 2278.0042 2276.1289 2273.7518 2271.7169 2269.7510 2267.7882 2265.2341 2263.2620 2261.1011 2258.9326 2257.0086 2254.6692 2252.7966 2250.5047 2248.3885 2246.6161 2244.1582 2242.0459 2240.2201 2238.0061 2236.0093 2233.8095 2231.7888 2229.4401 2227.4015 2225.4801 2223.2126 2221.0463 2219.1859 2216.8322 2214.6520 2212.7055 2210.4549 2208.7252 2206.4388 2204.5085 2202.3888 2200.1221 2198.1123 2195.8269 2193.8000 2191.4838 2189.3715 2187.2622 2185.1616 2183.5362 2181.2955 2179.0841 2176.9949 2174.8873 2172.7783 2170.5609 2168.3107 2166.2210 2164.3089 2162.3550 2160.2125 2157.7962 2156.0948 2153.8140 2151.6925 2149.3630 2147.2970 2145.4251 2143.4297 2141.1112 2138.9622 2136.8957 2134.7313 2132.7009 2130.6014 2128.4313 2126.5556 2124.2235 2122.4390 2119.9961 2118.1326 2116.0542 2113.9020 2111.5938 2109.6971 2107.2653 2105.5941 2103.4838 2101.3956 2099.0034 2096.8840 2094.8338 2092.8169 2090.6499 2088.5387 2086.3637 2084.3531 2082.3007 2080.1587 2078.1915 2075.8987 2073.6063 2071.7881 2069.7827 2067.2593 2065.1272 2063.3024 2060.8791 2059.2057 2057.1542 2054.7055 2052.5236 2050.7653 2048.4302 2046.6241 2044.4709 2042.3563 2040.2771 2037.7128 2035.6314 2033.6876 2031.5580 2029.3035 2027.3422 2025.1334 2023.0163 2021.0747 2018.8458 2016.8993 2014.7766 2012.8880 2010.4061 2008.6480 2006.2135 2004.2259 2002.1382 2000.2133 1997.6916 1995.6437 1993.7524 1991.6112 1989.2673 1987.3501 1985.4980 1983.1258 1981.1444 1979.0965 1976.7638 1974.8559 1972.8920 1970.3714 1968.3681 1966.5774 1964.2227 1962.1255 1960.2436 1957.7860 1956.0066 1953.8174 1951.5084 1949.3533 1947.3699 1945.2794 1943.2886 1941.1306 1939.0808 1936.6704 1934.5927 1932.5121 1930.2962 1928.2074 1926.4150 1924.1894 1922.0595 1919.8889 1917.6506 1915.9436 1913.5882 1911.6419 1909.3047 1907.2405 1905.4321 1903.1098 1901.2705 1898.9031 1896.6411 1894.9220 1892.8195 1890.5887 1888.1710 1886.1133 1883.9512 1882.1359 1879.9940 1877.8815 1875.8006 1873.7095 1871.5537 1869.3228 1867.5299 1865.2790 1862.9036 1860.7826 1858.9979 1856.9876 1854.8349 1852.8271 1850.6286 1848.2466 1846.1382 1844.2561 1841.9919 1839.9769 1837.7418 1835.5143 1833.8385 1831.4221 1829.6633 1827.4665 1825.2862 1823.0665 1820.8284 1819.0443 1816.7368 1814.6147 1812.3942 1810.4974 1808.5249 1806.3237 1804.3198 1801.8129 1799.7031 1797.9135 1795.9652 1793.7129 1791.6921 1789.4437 1787.1300 1785.3729 1782.8893 1781.0715 1779.0965 1776.9287 1774.7292 1772.6682 1770.2948 1770.2717 1772.6282 1774.6296 1776.9232 1779.0327 1781.0708 1783.0440 1785.1506 1787.1126 1789.5275 1791.5345 1793.4065 1795.7668 1797.7942 1799.8385 1802.0123 1804.1046 1806.2890 1808.3420 1810.6062 1812.3947 1814.8746 1816.8444
2346.0640 2344.2315 2342.1685 2339.9593 2337.7343 2335.6243 2333.4738 2331.3363 2329.3056 2327.0732 2325.3426 2323.2663 2320.9982 2318.9010 2316.5960 2314.5565 2312.6843 2310.3912 2308.3999 2306.2357 2304.0686 2302.0218 2299.7804 2297.6294 2295.7722 2293.4047 2291.6347 2289.2561 2287.4302 2285.1357 2283.1696 2280.9806 2278.9582 2276.7253 2274.7467 2272.4039 2270.4434 2268.2394 2266.1839 2263.9327 2261.6228 2259.6617 2257.6120 2255.4949 2253.4949 2251.2392 2249.2025 2247.0487 2244.9359 2242.7976 2240.7722 2238.5832 2236.7626 2234.6233 2232.5372 2230.3325 2227.9714 2226.0717 2224.0757 2221.5548 2219.8928 2217.7975 2215.4072 2213.4992 2211.3696 2208.8878 2207.1793 2205.0540 2202.5812 2200.8665 2198.5280 2196.7165 2194.5419 2192.1533 2189.9859 2188.1441 2185.7734 2183.7269 2181.4499 2179.8042 2177.6712 2175.2374 2173.2210 2171.2486 2169.2207 2166.8086 2164.7418 2162.7376 2160.5546 2158.3057 2156.2038 2154.0485 2152.2173 2150.0434 2147.7425 2145.5858 2143.6475 2141.6735 2139.5631 2137.5314 2135.1266 2133.3022 2131.1055 2129.0425 2126.8703 2124.5868 2122.7230 2120.3839 2118.3311 2116.3259 2113.9588 2112.2887 2109.7985 2108.0406 2105.6220 2103.6295 2101.5378 2099.2598 2097.4235 2094.9535 2092.9009 2090.8963 2088.6894 2086.9404 2084.8266 2082.4970 2080.3641 2078.4332 2076.3867 2073.9912 2071.9497 2070.0887 2067.9522 2065.5426 2063.4973 2061.2646 2059.5651 2057.4620 2055.2448 2053.1609 2050.9384 2048.6323 2046.8695 2044.4205 2042.3026 2040.4730 2038.4477 2036.3352 2034.2211 2032.0582 2029.6324 2027.6236 2025.3426 2023.5430 2021.5220 2019.0331 2016.9652 2015.0910 2012.9084 2011.0167 2008.8602 2006.3615 2004.7015 2002.2216 2000.2867 1998.3062 1995.8963 1993.8115 1991.7307 1989.9291 1987.5680 1985.6026 1983.2315 1981.1371 1979.1952 1976.8475 1975.1000 1972.8975 1970.8410 1968.7929 1966.5217 1964.2515 1962.4355 1960.3780 1958.0406 1956.1232 1954.0246 1951.9207 1949.8308 1947.5102 1945.4903 1943.5509 1941.0320 1939.0962 1937.1733 1934.8644 1932.6780 1930.7417 1928.6819 1926.5681 1924.3103 1922.4396 1919.8813 1917.8526 1915.9316 1913.5301 1911.6265 1909.3887 1907.5917 1905.1789 1903.2907 1901.1163 1899.0162 1896.8332 1894.7454 1892.8964 1890.5085 1888.4872 1886.4951 1884.3640 1882.2447 1880.1494 1878.0533 1875.6305 1873.8644 1871.6374 1869.2755 1867.4393 1865.1756 1863.3116 1860.8473 1859.0188 1856.8102 1854.6325 1852.5368 1850.4795 1848.4574 1846.0203 1843.9157 1842.0975 1840.0508 1837.9050 1835.6055 1833.5795 1831.6376 1829.6124 1827.1895 1825.3281 1822.8168 1821.0779 1818.9920 1816.7472 1814.4701 1812.6431 1810.4282 1808.3604 1806.2870 1804.0087 1802.0884 1799.9510 1797.7234 1795.3819 1793.7452 1791.5535 1789.4001 1787.1724 1785.1496 1783.2052 1780.9214 1778.7763 1776.7718 1774.6462 1772.6123 1770.3179 1768.3642 1768.2165 1770.2850 1772.4647 1774.7425 1776.5442 1778.7929 1780.9122 1783.0646 1785.3083 1787.1493 1789.1314 1791.2647 1793.3834 1795.8251 1797.6741 1800.0082 1801.7255 1804.2154 1805.9501 1808.3351 1810.1429 1812.3345 1814.7055
2345.0879 2342.9082 2340.9067 2338.3559 2336.6604 2334.5042 2332.2502 2330.1127 2328.1205 2325.6905 2323.7941 2321.7153 2319.5425 2317.2094 2315.5305 2313.1069 2311.0073 2308.8113 2306.8065 2304.8667 2302.7896 2300.5210 2298.5644 2296.4055 2293.9913 2291.9128 2289.8051 2287.9231 2286.0018 2283.4815 2281.4122 2279.4839 2277.0869 2275.2341 2273.0296 2271.0088 2269.0295 2266.7886 2264.6925 2262.5327 2260.2331 2258.4235 2256.4172 2253.9568 2252.1828 2250.0279 2247.6705 2245.8308 2243.7073 2241.1676 2239.3107 2237.1397 2234.8456 2232.9623 2230.6031 2228.6305 2226.3986 2224.2654 2222.1304 2220.4266 2218.3168 2215.8953 2213.8649 2211.7071 2209.4900 2207.6548 2205.5400 2203.2359 2201.4774 2199.3383 2196.8825 2195.1103 2192.8010 2190.8962 2188.7468 2186.4262 2184.5768 2182.3432 2180.3360 2177.7898 2175.9175 2173.6946 2171.4728 2169.3111 2167.6510 2165.5373 2163.2565 2160.9267 2159.1334 2156.8921 2154.7410 2152.6040 2150.5233 2148.5991 2146.1458 2143.9315 2141.9375 2139.9651 2138.0095 2135.9597 2133.6834 2131.3605 2129.2403 2127.2022 2125.1186 2123.2741 2121.1385 2118.9481 2116.6553 2114.4693 2112.5122 2110.5089 2108.1177 2106.1506 2104.0378 2102.0811 2099.8866 2097.5172 2095.7461 2093.5424 2091.2308 2089.4293 2087.2554 2085.2495 2083.0606 2080.8978 2078.6683 2076.6886 2074.6973 2072.4819 2070.3152 2067.8934 2065.8764 2063.6900 2061.9464 2059.4938 2057.7425 2055.3867 2053.1422 2051.3325 2049.2660 2046.9153 2044.8457 2042.5866 2040.4226 2038.4814 2036.3535 2034.0973 2032.0489 2030.0151 2027.9499 2025.6521 2023.7747 2021.4562 2019.2714 2017.5932 2015.4464 2013.0413 2011.1858 2008.9126 2006.7667 2004.7651 2002.3616 2000.5597 1998.3685 1996.2360 1994.1876 1991.9895 1989.9309 1987.9559 1985.6866 1983.3444 1981.2727 1979.5660 1977.4939 1975.0996 1972.7806 1970.8675 1969.0047 1966.6629 1964.3880 1962.6026 1960.3481 1958.2560 1956.2254 1954.1134 1951.8808 1949.9752 1947.5378 1945.7635 1943.4313 1941.4524 1939.1318 1937.3356 1935.0051 1932.8866 1930.9718 1928.4325 1926.6757 1924.2606 1922.2693 1920.3579 1918.2227 1916.0148 1913.6204 1911.7215 1909.4923 1907.6010 1905.2844 1903.4088 1901.1503 1898.9386 1896.8887 1894.9318 1892.5761 1890.4256 1888.2510 1886.2301 1884.2029 1882.2934 1880.0307 1877.7291 1875.6676 1873.4978 1871.8338 1869.5589 1867.6102 1865.2563 1863.2956 1860.7810 1858.8228 1856.6182 1854.5583 1852.5945 1850.4228 1848.2031 1846.0289 1844.0194 1842.0560 1840.0604 1837.9992 1835.6213 1833.3252 1831.2429 1829.2164 1827.1539 1824.8607 1822.7865 1821.0872 1818.6586 1816.5499 1814.7469 1812.3785 1810.1057 1807.9841 1805.9903 1803.7630 1801.6367 1799.7808 1797.5401 1795.5759 1793.2628 1791.0917 1789.3208 1787.0294 1785.1560 1782.6409 1780.5583 1778.4888 1776.4588 1774.4766 1772.0493 1770.1599 1767.9563 1765.9478 1765.7646 1768.0411 1769.9595 1772.2338 1774.1632 1776.5676 1778.6111 1780.8579 1783.0819 1784.7516 1786.9256 1789.4234 1791.1612 1793.5679 1795.3561 1797.6525 1799.8435 1801.8353 1803.9312 1806.0967 1807.9962 1810.2446 1812.6390
2343.5539 2341.5548 2339.5667 2337.3203 2335.0047 2332.8862 2330.8865 2328.8785 2326.8925 2324.7238 2322.6142 2320.2982 2318.1572 2316.2595 2314.0941 2311.6583 2309.8839 2307.4350 2305.5966 2303.5848 2301.0189 2299.1927 2297.0920 2294.8074 2293.0266 2290.9006 2288.7777 2286.4884 2284.4604 2281.9614 2280.0500 2278.1030 2276.1004 2273.6330 2271.3789 2269.3098 2267.3092 2265.2521 2263.2712 2260.8441 2258.7976 2256.9839 2254.7951 2252.7444 2250.5210 2248.3858 2246.0277 2243.8988 2242.1636 2239.6399 2237.7225 2235.7238 2233.6658 2231.2528 2229.1956 2227.4082 2225.2575 2223.0626 2220.5963 2218.9024 2216.6925 2214.7272 2212.3375 2210.3659 2208.2097 2205.9011 2203.7085 2201.5555 2199.8853 2197.3943 2195.5938 2193.4395 2191.3083 2189.3069 2186.7383 2184.7997 2182.5010 2180.6234 2178.4792 2176.4771 2174.3320 2172.2448 2170.1675 2168.1073 2165.7390 2163.7067 2161.6644 2159.2664 2157.2218 2155.0324 2152.9071 2150.8525 2148.8112 2146.5233 2144.6301 2142.3576 2140.4010 2138.0965 2136.1940 2133.8288 2132.1749 2129.9657 2127.6119 2125.7375 2123.2901 2121.4518 2119.2007 2117.3553 2115.0005 2112.8372 2111.0013 2108.6894 2106.7610 2104.2474 2102.4254 2100.2803 2097.8789 2096.0963 2093.7897 2091.5115 2089.7994 2087.5877 2085.3353 2083.2963 2081.2842 2078.9344 2076.9967 2074.7741 2072.6321 2070.4349 2068.2439 2066.4306 2064.0745 2061.8709 2060.2094 2057.9811 2055.9186 2053.8619 2051.6813 2049.1801 2047.3723 2045.0683 2042.9121 2040.6911 2038.5931 2036.9315 2034.4077 2032.5813 2030.5959 2028.3974 2026.0616 2023.8561 2021.7300 2019.6998 2017.7765 2015.5959 2013.4586 2011.0755 2009.1558 2007.0145 2005.0270 2002.9141 2000.9094 1998.4999 1996.6911 1994.2341 1992.4486 1989.9367 1988.2272 1985.8958 1983.6696 1981.4650 1979.5922 1977.3749 1975.5004 1973.3860 1970.9702 1969.1341 1966.8118 1964.6443 1962.6063 1960.3845 1958.5396 1956.1232 1954.1144 1952.1115 1949.7164 1947.8454 1945.7008 1943.7158 1941.3487 1939.2699 1937.2413 1935.2773 1933.1542 1930.8683 1928.8952 1926.4270 1924.5817 1922.5736 1920.5413 1918.1733 1915.9269 1914.1820 1912.0379 1909.6343 1907.4930 1905.3800 1903.5948 1901.1811 1898.9441 1897.0944 1894.9844 1892.8978 1890.5972 1888.6359 1886.4652 1884.1418 1882.4244 1880.2547 1878.2240 1876.0443 1873.6558 1871.7225 1869.6116 1867.4364 1865.2371 1863.3900 1860.8586 1859.0681 1857.0336 1854.8340 1852.5731 1850.5315 1848.1674 1846.2682 1843.9910 1842.1079 1840.0271 1837.6636 1835.4963 1833.6613 1831.5004 1829.4815 1827.4103 1824.9136 1822.9730 1820.9215 1818.7549 1816.6131 1814.2688 1812.3138 1810.3827 1808.1130 1805.9680 1803.6758 1801.9412 1799.6928 1797.4518 1795.3814 1793.3338 1790.9908 1788.9105 1787.1907 1785.0524 1782.9225 1780.7267 1778.6754 1776.3238 1774.5014 1772.3468 1770.0558 1767.9498 1765.8011 1763.8156 1763.9129 1765.6213 1767.7602 1770.0462 1771.9713 1774.3196 1776.3528 1778.4254 1780.4265 1782.6128 1784.9083 1786.8898 1789.1028 1791.1799 1793.1419 1795.6775 1797.5708 1799.4278 1801.6720 1803.9508 1806.1568 1808.1150 1810.1256
2342.1977 2340.3371 2337.8511 2335.9147 2333.9170 2331.5950 2329.4954 2327.4251 2325.1371 2323.2778 2320.8767 2318.9922 2316.8381 2314.4584 2312.7101 2310.4222 2308.2966 2306.0346 2304.0369 2301.8737 2299.9084 2297.5814 2295.4747 2293.6537 2291.2068 2289.0580 2287.0995 2284.7685 2283.1451 2280.6185 2278.4888 2276.5612 2274.4058 2272.3225 2270.3768 2267.8468 2266.0284 2264.0052 2261.8455 2259.6834 2257.3339 2255.2372 2253.4212 2250.8776 2248.9932 2246.7379 2244.8446 2242.3788 2240.6868 2238.2175 2236.2884 2234.1090 2232.0693 2230.0397 2227.8770 2225.6223 2223.5168 2221.1780 2219.3351 2217.2108 2215.0755 2213.0179 2210.7525 2208.6224 2206.4707 2204.2325 2202.4104 2200.4208 2198.3486 2195.9558 2194.1038 2191.5263 2189.8093 2187.7152 2185.2641 2183.4134 2180.9694 2179.0180 2176.7382 2174.9074 2172.7666 2170.4863 2168.4329 2166.1404 2164.4219 2162.2800 2159.8226 2157.7456 2155.9481 2153.7384 2151.5834 2149.4217 2147.1401 2145.1667 2143.1476 2140.8752 2138.9578 2136.7135 2134.3527 2132.3371 2130.5023 2128.2749 2126.1631 2124.1148 2121.5559 2119.6830 2117.4863 2115.6281 2113.3552 2111.2298 2109.1129 2106.7857 2104.9161 2102.5204 2100.6499 2098.2281 2096.2438 2094.2185 2091.9831 2090.1830 2087.6683 2085.5681 2083.4178 2081.6977 2079.5710 2077.4602 2075.2092 2073.0592 2070.7213 2068.6697 2066.9068 2064.4579 2062.3748 2060.0873 2058.0934 2056.3050 2053.8622 2051.7065 2049.7148 2047.8109 2045.5625 2043.2042 2041.1314 2039.1419 2036.8490 2035.0442 2032.7191 2030.8930 2028.4643 2026.3024 2024.1789 2021.9910 2019.8806 2017.9570 2016.0161 2013.7940 2011.6630 2009.5843 2007.3389 2005.1635 2003.0443 2001.1118 1999.0868 1996.9771 1994.5657 1992.4191 1990.4737 1988.4993 1986.0122 1983.8240 1981.7047 1980.0005 1977.5380 1975.5687 1973.2495 1971.4650 1968.9321 1967.1907 1964.8536 1962.8450 1960.5842 1958.7357 1956.5242 1954.1919 1952.3429 1950.3293 1947.7575 1945.7577 1943.9282 1941.8205 1939.5297 1937.1483 1935.0543 1932.9868 1931.0732 1928.7658 1926.5525 1924.6713 1922.4414 1920.4649 1918.0735 1916.1957 1913.8502 1912.0175 1909.6709 1907.9350 1905.4925 1903.3588 1901.5484 1899.4360 1896.8942 1894.8175 1892.6274 1890.6069 1888.4356 1886.5014 1884.1388 1882.1236 1879.9918 1878.0422 1875.9157 1873.7462 1871.6184 1869.6303 1867.1947 1865.5131 1863.0635 1861.0838 1859.1335 1856.9359 1854.8235 1852.4881 1850.6460 1848.2499 1846.0003 1844.2512 1842.0211 1839.8642 1837.5802 1835.8756 1833.4614 1831.1379 1829.4941 1826.9761 1825.0948 1823.1263 1820.8389 1818.7927 1816.7679 1814.4796 1812.4781 1810.1439 1808.3055 1805.7446 1803.6895 1801.9097 1799.4409 1797.7173 1795.1378 1793.2940 1791.2703 1788.8200 1786.7804 1784.9329 1782.3861 1780.5122 1778.3185 1776.3298 1774.1925 1771.8598 1769.8780 1767.6267 1765.8933 1763.4286 1761.5072 1761.6074 1763.4251 1765.6472 1767.7455 1770.0541 1771.9751 1773.9100 1776.1567 1778.4961 1780.7048 1782.6359 1784.7600 1787.1080 1788.9974 1791.0930 1793.4481 1795.5624 1797.2494 1799.6830 1801.8773 1803.9163 1805.7164 1807.8546
2340.9304 2339.0045 2336.7759 2334.3525 2332.6373 2330.5426 2328.0161 2326.2307 2323.8685 2321.6265 2319.4935 2317.7494 2315.5348 2313.1691 2311.3559 2309.2984 2306.8599 2304.8932 2302.7430 2300.4217 2298.6193 2296.0786 2294.1533 2292.1329 2289.8321 2287.9955 2285.8435 2283.7581 2281.4587 2279.5001 2277.1781 2275.3330 2273.0699 2270.9766 2268.6748 2266.8300 2264.5401 2262.5788 2260.3126 2258.3134 2255.7475 2254.0291 2251.9573 2249.5075 2247.3201 2245.2214 2243.0632 2241.0115 2238.7648 2237.0950 2234.5456 2232.8603 2230.5304 2228.3951 2226.4134 2224.0193 2222.1249 2220.1268 2217.8649 2215.5186 2213.3006 2211.3888 2209.0508 2206.9386 2204.9987 2202.7229 2200.9771 2198.8529 2196.3292 2194.1925 2192.4744 2190.2079 2188.1768 2185.7374 2183.5777 2181.8834 2179.4739 2177.4089 2175.3067 2172.9689 2170.9020 2168.9070 2166.8480 2164.4603 2162.3498 2160.2394 2158.2762 2156.1541 2154.1533 2151.8773 2149.6317 2147.6177 2145.4427 2143.3251 2141.1221 2138.9807 2136.8693 2135.1484 2132.6769 2130.6527 2128.6072 2126.5520 2124.1533 2122.2619 2120.1243 2118.0290 2115.9243 2113.6478 2111.7496 2109.6141 2107.5549 2105.3135 2102.9293 2101.1683 2099.0695 2096.8889 2094.5696 2092.5055 2090.6062 2088.4994 2086.1263 2084.1059 2081.7406 2079.7618 2077.8237 2075.7046 2073.3508 2071.3978 2068.9051 2067.1696 2064.7340 2062.5390 2060.6572 2058.6405 2056.2564 2054.2682 2052.1000 2049.9396 2047.9369 2045.8703 2043.6299 2041.6666 2039.5391 2037.0954 2035.0361 2032.9621 2031.0141 2028.7656 2026.8743 2024.4080 2022.2218 2020.4738 2018.2840 2016.2602 2014.1191 2012.0729 2009.8773 2007.5991 2005.4357 2003.2614 2001.3983 1999.2359 1996.8084 1994.7124 1992.8575 1990.7198 1988.6585 1986.2804 1984.4224 1982.2405 1980.1225 1977.9798 1975.7993 1973.8241 1971.5818 1969.5966 1967.4309 1964.8965 1963.2336 1960.6646 1958.7741 1956.5351 1954.4262 1952.3576 1950.1204 1948.2868 1945.9999 1944.0979 1941.6804 1939.8696 1937.4338 1935.4236 1933.3815 1931.1440 1929.0601 1926.9173 1924.8538 1922.7844 1920.3024 1918.5214 1916.1113 1913.9456 1912.2652 1909.8480 1907.9810 1905.5741 1903.4210 1901.3879 1899.1196 1897.3782 1895.0517 1892.9910 1890.5818 1888.7359 1886.3782 1884.6065 1882.3531 1880.2705 1878.1258 1876.1901 1873.9224 1871.8557 1869.7888 1867.4868 1865.5126 1863.1980 1861.0052 1858.8691 1856.9355 1854.6467 1852.6083 1850.3824 1848.3879 1846.2692 1843.9236 1841.8231 1840.0872 1837.7876 1835.3963 1833.3866 1831.1919 1829.3805 1826.9234 1825.1044 1823.0031 1820.8529 1818.6366 1816.6411 1814.5931 1812.3385 1809.8995 1808.1324 1805.7225 1803.8215 1801.7688 1799.6495 1797.2996 1795.0629 1793.0668 1791.2224 1788.7306 1786.8147 1784.7195 1782.4276 1780.3535 1778.1453 1776.0598 1774.1908 1772.0622 1769.6063 1767.7009 1765.5997 1763.6260 1761.3927 1759.3888 1758.9535 1761.1517 1763.4575 1765.4873 1767.4494 1769.6291 1772.0551 1773.9665 1775.9829 1778.2156 1780.3160 1782.7568 1784.4320 1786.7665 1788.8017 1790.8754 1793.2589 1795.4796 1797.4888 1799.6903 1801.5140 1803.9231 1806.1181
2339.7609 2337.4519 2335.2206 2333.3031 2331.0880 2329.0936 2326.9653 2324.7851 2322.6173 2320.5997 2318.3549 2315.9834 2313.8235 2311.8259 2309.8639 2307.7114 2305.6345 2303.2799 2301.4617 2299.0627 2297.0740 2294.9561 2292.9799 2290.4847 2288.7448 2286.4585 2284.4164 2282.0287 2280.1151 2278.0891 2275.9732 2273.4655 2271.5491 2269.2695 2267.0550 2264.9863 2262.9698 2260.8228 2258.5681 2256.6922 2254.6908 2252.5127 2250.3546 2247.9291 2246.1566 2243.7288 2241.6769 2239.7868 2237.6933 2235.2389 2233.0708 2231.0666 2228.9314 2226.6429 2224.6748 2222.5260 2220.5170 2218.1906 2216.4701 2213.8848 2212.2259 2209.8184 2207.9098 2205.3950 2203.5239 2201.2169 2199.1354 2197.0146 2195.1032 2192.8583 2190.6767 2188.7748 2186.7008 2184.1592 2182.0146 2180.3417 2177.8561 2175.7635 2173.9171 2171.3565 2169.2179 2167.1838 2165.0123 2162.8573 2160.7437 2158.6016 2156.8694 2154.7899 2152.3305 2150.1478 2148.3381 2146.2513 2143.7371 2142.0046 2139.4529 2137.5937 2135.5235 2133.3201 2131.4263 2128.8188 2127.0610 2124.8279 2122.6521 2120.6177 2118.5944 2116.3260 2114.2954 2112.1824 2110.1558 2107.9849 2105.8981 2103.6076 2101.3114 2099.1394 2097.3591 2094.8050 2093.0417 2090.6858 2088.6992 2086.4531 2084.1912 2082.4234 2080.2626 2077.8173 2075.9481 2073.6176 2071.4543 2069.7131 2067.2388 2065.1294 2062.9795 2061.1486 2058.7681 2056.5482 2054.6674 2052.4820 2050.4584 2048.4699 2046.0130 2044.0054 2041.9954 2039.6385 2037.6821 2035.5480 2033.3725 2031.0121 2028.9073 2026.7972 2024.6855 2022.6218 2020.7746 2018.6901 2016.2286 2014.2929 2012.1349 2009.9073 2007.7206 2005.5718 2003.3526 2001.6890 1999.5857 1997.4320 1995.1230 1992.9049 1990.7264 1988.5221 1986.4525 1984.5153 1982.3159 1980.4338 1978.0828 1975.7927 1973.6836 1971.5081 1969.6121 1967.2619 1965.1926 1963.0148 1960.9203 1958.8013 1956.7841 1954.4783 1952.5201 1950.5572 1948.1010 1946.2536 1944.2485 1942.0567 1939.9501 1937.8594 1935.4250 1933.2569 1931.1560 1928.9884 1927.2730 1925.0276 1922.7358 1920.8182 1918.3073 1916.4660 1914.4302 1911.9296 1909.7988 1908.1207 1905.9532 1903.8882 1901.4118 1899.1602 1897.2725 1895.1972 1893.2110 1891.0471 1888.7264 1886.3983 1884.3657 1882.5997 1880.2759 1878.3364 1875.8153 1873.6810 1871.7266 1869.8572 1867.7018 1865.5665 1863.4289 1861.3157 1858.8454 1856.8010 1854.5946 1852.4660 1850.4559 1848.2135 1846.1161 1844.0681 1841.9102 1839.7324 1837.9759 1835.5391 1833.6325 1831.3214 1828.9812 1827.2111 1825.1313 1822.7458 1820.6157 1818.7161 1816.6441 1814.2152 1812.3361 1809.9570 1808.1612 1805.6720 1803.7396 1801.3470 1799.4047 1797.1502 1795.1751 1792.9794 1790.7792 1789.0451 1786.4687 1784.6286 1782.2906 1780.2780 1778.3553 1776.0088 1773.9284 1771.8968 1769.5303 1767.6438 1765.2295 1763.1876 1761.0155 1759.1386 1756.8526 1756.8254 1759.2296 1761.2367 1763.0750 1765.4150 1767.6975 1769.4421 1772.0527 1774.0782 1776.2301 1778.3164 1780.3837 1782.4778 1784.3350 1786.7747 1788.9152 1790.7106 1792.9831 1795.3796 1797.1067 1799.6926 1801.6811 1803.5901
2338.3033 2335.9183 2334.0899 2332.0379 2329.9163 2327.5530 2325.2383 2323.2528 2321.1710 2318.9256 2316.7567 2314.9638 2312.4726 2310.5098 2308.5407 2306.1425 2304.0437 2301.8182 2299.7599 2297.9976 2295.8537 2293.5963 2291.4488 2289.1447 2287.3186 2285.0316 2283.0846 2280.7966 2278.6505 2276.6560 2274.2408 2272.4475 2270.2422 2267.9999 2265.9767 2263.8017 2261.6134 2259.2692 2257.2761 2255.1670 2253.2416 2251.0456 2248.8797 2246.4241 2244.3798 2242.3326 2240.3289 2238.0445 2235.8592 2233.8103 2231.8639 2229.7553 2227.6345 2225.2905 2223.2833 2220.9857 2218.9714 2217.0834 2214.7328 2212.6456 2210.6736 2208.5582 2206.2559 2204.0403 2201.9559 2199.5692 2197.5719 2195.6290 2193.5076 2191.0360 2188.9244 2187.0764 2184.9324 2182.9251 2180.4068 2178.5904 2176.1564 2174.0940 2172.0120 2170.1079 2167.9734 2165.7206 2163.5038 2161.7127 2159.3384 2157.4531 2154.9388 2152.9434 2150.9420 2148.6474 2146.4874 2144.2817 2142.4830 2140.1534 2138.0608 2136.1294 2133.9786 2131.8430 2129.2854 2127.3483 2125.0849 2122.9548 2121.2163 2118.6782 2116.8107 2114.8203 2112.3556 2110.4570 2108.0748 2106.2774 2104.0680 2102.0042 2099.7099 2097.6649 2095.2706 2093.5489 2091.3350 2088.8961 2086.7161 2084.6908 2082.4556 2080.4283 2078.3136 2076.1396 2074.3379 2072.0352 2069.8062 2067.9258 2065.7323 2063.5341 2061.5075 2059.4818 2056.9977 2054.9230 2053.0816 2050.5227 2048.5248 2046.5127 2044.0990 2042.3656 2039.8550 2037.7168 2035.6280 2033.4902 2031.5889 2029.3063 2027.3033 2025.1704 2022.8727 2020.7621 2018.9456 2016.7286 2014.7285 2012.4127 2010.0222 2008.2966 2006.1451 2004.0591 2001.9081 1999.4618 1997.3328 1995.4674 1993.3133 1990.9759 1988.9976 1986.7769 1984.6593 1982.5952 1980.2146 1978.3549 1975.9873 1974.2371 1971.8845 1969.6825 1967.6902 1965.3136 1963.3221 1961.0335 1959.3637 1956.8906 1954.7789 1952.6733 1950.5009 1948.3686 1946.3566 1944.1827 1941.9633 1939.8961 1937.9495 1935.5763 1933.3560 1931.5492 1929.0977 1927.2904 1925.0942 1922.6923 1920.5820 1918.5851 1916.3618 1914.4762 1912.2000 1910.3867 1907.8165 1905.6936 1903.6255 1901.7849 1899.5130 1897.1355 1895.3409 1893.2352 1891.1444 1889.0988 1886.5663 1884.4191 1882.6228 1880.3554 1878.3325 1875.9840 1873.9469 1871.8288 1869.4840 1867.4369 1865.3158 1863.4107 1861.1368 1859.1932 1856.8898 1854.7360 1852.8828 1850.3261 1848.5509 1846.0485 1844.1692 1842.0916 1839.8791 1837.7109 1835.7296 1833.5145 1831.3848 1829.0068 1827.3366 1825.0566 1822.8745 1820.5643 1818.5290 1816.5042 1814.4249 1812.1993 1810.2213 1807.9065 1805.6615 1803.7855 1801.5920 1799.1715 1797.1237 1795.0437 1792.9040 1791.1112 1788.8965 1786.3923 1784.2672 1782.5124 1780.3177 1777.9069 1775.7776 1774.0060 1771.5985 1769.5624 1767.4275 1765.5504 1763.4258 1761.0273 1758.7358 1756.9061 1754.8134 1754.6219 1756.8282 1758.8847 1761.1475 1763.3614 1765.4120 1767.3922 1769.6130 1771.7206 1773.8035 1776.0687 1777.9319 1780.0114 1782.1476 1784.3750 1786.7589 1788.9776 1791.0197 1792.8283 1794.9298 1797.0944 1799.5022 1801.4655
2336.8632 2335.0003 2332.6786 2330.3087 2328.5282 2326.4813 2324.2382 2321.9911 2319.7313 2317.7614 2315.3622 2313.2007 2311.4050 2309.1209 2306.8594 2305.0191 2302.8244 2300.7977 2298.4913 2296.2902 2294.0996 2292.2182 2290.0171 2287.8683 2285.6364 2283.6220 2281.4025 2279.3400 2277.3300 2275.2212 2272.9025 2270.9937 2268.4103 2266.3385 2264.1636 2262.3419 2259.9774 2258.0403 2255.9662 2253.6021 2251.6613 2249.3839 2247.2754 2245.0048 2242.9242 2240.8904 2238.9443 2236.6712 2234.7166 2232.6157 2230.2514 2227.8766 2226.0300 2223.9514 2221.5152 2219.4292 2217.3465 2215.4251 2213.1772 2210.9213 2208.8691 2206.5355 2204.7406 2202.5427 2200.6190 2198.4314 2196.2289 2194.1117 2191.8314 2189.4872 2187.4983 2185.2440 2183.5402 2181.1617 2178.8731 2176.9492 2174.8377 2172.8806 2170.6501 2168.2550 2166.3863 2164.3488 2162.0421 2159.9037 2157.6324 2155.6875 2153.2937 2151.3815 2149.1057 2146.8701 2145.1405 2142.8594 2140.7577 2138.6909 2136.2486 2134.2741 2131.9312 2129.8851 2127.6799 2125.8053 2123.6176 2121.6764 2119.5205 2117.0861 2115.0182 2112.8836 2110.7552 2108.7273 2106.5795 2104.3200 2102.1760 2100.2248 2097.7657 2096.0218 2093.7251 2091.8054 2089.4584 2087.1874 2085.2664 2083.1364 2081.0223 2078.6293 2076.8389 2074.7636 2072.3668 2070.1170 2068.0230 2066.2336 2064.0770 2061.8138 2059.4971 2057.5160 2055.2430 2053.0830 2051.0500 2049.0854 2046.6024 2044.8737 2042.5355 2040.5920 2038.2463 2036.3551 2033.9892 2031.8149 2029.7676 2027.4258 2025.6294 2023.1048 2021.0038 2019.2947 2016.8850 2015.0111 2012.6510 2010.5707 2008.4973 2006.1876 2004.0721 2002.0507 1999.9313 1997.9485 1995.3624 1993.2194 1991.3931 1989.1365 1986.8810 1984.6997 1982.6903 1980.7648 1978.3770 1976.4283 1974.4417 1972.1095 1969.9257 1968.0933 1965.8081 1963.6071 1961.5781 1959.1457 1957.1065 1955.1635 1953.0277 1950.6680 1948.5504 1946.7628 1944.5146 1942.2465 1940.1779 1938.0657 1936.0694 1933.6742 1931.7502 1929.4593 1927.4111 1925.2674 1923.0167 1920.9903 1918.9392 1916.5590 1914.6208 1912.5715 1910.4843 1907.9794 1905.8629 1903.7299 1901.6780 1899.8269 1897.6770 1895.3022 1893.3019 1890.9608 1889.0814 1886.8383 1884.8600 1882.6793 1880.3591 1878.4521 1876.0911 1874.1365 1872.1092 1869.6021 1867.4028 1865.3873 1863.3478 1860.9746 1859.1314 1856.8352 1854.7673 1852.7182 1850.6111 1848.4441 1846.0908 1843.9633 1842.0819 1839.9610 1837.6096 1835.5051 1833.4745 1831.1493 1829.1269 1827.2646 1825.1422 1822.7956 1820.4702 1818.6518 1816.1727 1814.3535 1812.3610 1810.0291 1807.7089 1805.8316 1803.5232 1801.4775 1799.1715 1797.0765 1795.0296 1792.9346 1791.0148 1788.9092 1786.4653 1784.6513 1782.4012 1780.0128 1777.9680 1776.0592 1773.6371 1771.8469 1769.5754 1767.5210 1765.1174 1763.0083 1761.1677 1758.8780 1756.9039 1754.5378 1752.5767 1752.2454 1754.7012 1756.7060 1758.8695 1760.8256 1763.2681 1765.4429 1767.5018 1769.7085 1771.5303 1773.5647 1775.7835 1778.1080 1780.3994 1782.1338 1784.4718 1786.3894 1788.9028 1790.8321 1793.1834 1795.1956 1797.2525 1799.5595
2335.5621 2333.2578 2331.2268 2329.1375 2327.0425 2324.6606 2322.5551 2320.4112 2318.5899 2316.1637 2314.3298 2312.0334 2309.7616 2307.8556 2305.4771 2303.7611 2301.1752 2299.4773 2297.1527 2294.8146 2293.0858 2290.8752 2288.4039 2286.1961 2284.5137 2282.0028 2280.0384 2277.9025 2275.8455 2273.5413 2271.5137 2269.4669 2267.4122 2265.1412 2262.9896 2260.6910 2258.8142 2256.3717 2254.3016 2252.1841 2249.9945 2248.1827 2245.9938 2243.4516 2241.3309 2239.6340 2237.1581 2234.9466 2233.2519 2230.8919 2228.7799 2226.5159 2224.4514 2222.3974 2220.4225 2218.3059 2216.0257 2213.5464 2211.4263 2209.5864 2207.6017 2205.1584 2203.3113 2201.0574 2198.9350 2196.5696 2194.7168 2192.2063 2190.1607 2188.0196 2185.8545 2184.1147 2181.8253 2179.4639 2177.5444 2175.2317 2173.2372 2171.1801 2168.9202 2166.7827 2164.5365 2162.4302 2160.4934 2158.3543 2155.8531 2153.7230 2151.6550 2149.7124 2147.6959 2145.4316 2143.2067 2141.1764 2139.2165 2136.8937 2134.7287 2132.8340 2130.5055 2128.3478 2126.0028 2124.1004 2121.6802 2119.7143 2117.5490 2115.5345 2113.1675 2111.1439 2109.1043 2106.8744 2104.7317 2102.4630 2100.7556 2098.2747 2096.3783 2094.2336 2092.1484 2089.7294 2087.6972 2085.5483 2083.2163 2081.5322 2079.1576 2077.0888 2075.1165 2072.7659 2070.5618 2068.5010 2066.5913 2064.4158 2061.8646 2060.0631 2057.6780 2055.8676 2053.7487 2051.3414 2049.1284 2047.3055 2044.8499 2042.6902 2040.5652 2038.7653 2036.2672 2034.3836 2032.0424 2029.8621 2028.0854 2025.6252 2023.6302 2021.7028 2019.5462 2017.4285 2015.1328 2012.9694 2010.8941 2008.5862 2006.6314 2004.3952 2002.1570 2000.3409 1997.9449 1995.8175 1993.7368 1991.7781 1989.6434 1987.2069 1985.2516 1983.1613 1981.1137 1978.7442 1976.7187 1974.6942 1972.1586 1970.3310 1968.1691 1965.8740 1963.8279 1961.7079 1959.4250 1957.2163 1955.2136 1953.0967 1951.1269 1949.0808 1946.8521 1944.4232 1942.6430 1940.3628 1938.0032 1936.0978 1933.6862 1932.0063 1929.5346 1927.5160 1925.3773 1923.2790 1920.8849 1919.1961 1916.5673 1914.5226 1912.5103 1910.5276 1908.4075 1906.0440 1904.2172 1902.0311 1899.5499 1897.5999 1895.6195 1893.2922 1891.2138 1888.9686 1886.6846 1884.6447 1882.6216 1880.4600 1878.6024 1876.2266 1874.3005 1871.7554 1869.8118 1867.4555 1865.6850 1863.4162 1861.3683 1859.1409 1856.9065 1854.7206 1852.9517 1850.7165 1848.3789 1846.2626 1843.9706 1841.8896 1839.8097 1837.9888 1835.6353 1833.7242 1831.5435 1829.2987 1827.2875 1824.8988 1822.7756 1820.6586 1818.4523 1816.4767 1814.0734 1812.2226 1809.9324 1807.8898 1805.5227 1803.5684 1801.4939 1799.2781 1797.0568 1794.9130 1793.0888 1790.7237 1788.8491 1786.3193 1784.5997 1781.9799 1780.2532 1778.0133 1775.7406 1773.6460 1771.4262 1769.3747 1767.4130 1765.0975 1762.8090 1761.0330 1758.8453 1756.3310 1754.3888 1752.2329 1749.9708 1750.3256 1752.4923 1754.1901 1756.3269 1758.6702 1760.9835 1762.9994 1765.1638 1767.4012 1769.4200 1771.5111 1773.4568 1775.9565 1778.0749 1779.8350 1782.1969 1784.2379 1786.5636 1788.8084 1790.5362 1792.9836 1795.0423 1797.3703
2334.1056 2332.0181 2329.8428 2328.0578 2325.6892 2323.4442 2321.1601 2319.0190 2317.1943 2314.8050 2313.0333 2310.6474 2308.6274 2306.5243 2304.2031 2302.1389 2299.8089 2297.6605 2295.5910 2293.6553 2291.2868 2289.3219 2287.1111 2285.0062 2283.0042 2280.5856 2278.5281 2276.5146 2274.2159 2272.2059 2269.9636 2268.0740 2265.8234 2263.5368 2261.4258 2259.2229 2257.0946 2254.9508 2253.1557 2250.6987 2248.3944 2246.6096 2244.2173 2242.1978 2240.2717 2238.1142 2235.9257 2233.6014 2231.5473 2229.2736 2227.1191 2225.1302 2223.2074 2220.8271 2218.7306 2216.3488 2214.3501 2212.3666 2209.9998 2208.1948 2206.0083 2203.5631 2201.7454 2199.3437 2197.2963 2194.9146 2193.0379 2190.9546 2188.5247 2186.4863 2184.3538 2182.2354 2180.2917 2178.2609 2176.0206 2173.9486 2171.4570 2169.6942 2167.1710 2165.1859 2163.1746 2160.8715 2158.7705 2156.5949 2154.5115 2152.1977 2150.4431 2148.1512 2145.7112 2144.0329 2141.5831 2139.5041 2137.5594 2135.0765 2133.2749 2130.8322 2128.7946 2126.9108 2124.7736 2122.2268 2120.2327 2118.0232 2116.0211 2113.6049 2111.6445 2109.7713 2107.6380 2105.3290 2103.1443 2101.1746 2099.0471 2096.4906 2094.6693 2092.5067 2090.4976 2088.2231 2085.9721 2083.8478 2081.7587 2079.4074 2077.3871 2075.3515 2073.2234 2070.8177 2069.0594 2066.6879 2064.5247 2062.3053 2060.3875 2058.0439 2056.1844 2053.7343 2051.6440 2049.8714 2047.4383 2045.1446 2043.1683 2040.9620 2038.6966 2036.5769 2034.6281 2032.4749 2030.5872 2028.4109 2026.3250 2024.0082 2021.7734 2019.8402 2017.5175 2015.2589 2013.0212 2010.8846 2009.1322 2006.6213 2004.8840 2002.7748 2000.5426 1998.1229 1996.2477 1993.7532 1991.7994 1989.5975 1987.8111 1985.4525 1983.4512 1980.9352 1978.8169 1976.6828 1974.9490 1972.4836 1970.5587 1968.1695 1966.1834 1963.8459 1961.7946 1959.8689 1957.5229 1955.5916 1953.5402 1951.2245 1948.8987 1947.0878 1944.9418 1942.6527 1940.5899 1938.5484 1936.3642 1934.2216 1931.9166 1929.6548 1927.8479 1925.4913 1923.4986 1921.1986 1918.9439 1916.8077 1914.9422 1912.5114 1910.6455 1908.3621 1906.2995 1904.2473 1902.1466 1899.6492 1897.5174 1895.5249 1893.2874 1891.5071 1888.9890 1887.0118 1884.6691 1882.9200 1880.4290 1878.6921 1876.0891 1874.0224 1871.8382 1870.1225 1867.7410 1865.8401 1863.2905 1861.2428 1859.3629 1857.1448 1855.0452 1852.6513 1850.4984 1848.4011 1846.3656 1844.1163 1842.1734 1840.1385 1837.6550 1835.5986 1833.6466 1831.2170 1829.2529 1827.2363 1824.8129 1822.7721 1820.7330 1818.4269 1816.5683 1814.2047 1812.1744 1810.1004 1807.8082 1805.4548 1803.6415 1801.3974 1799.4900 1797.1269 1794.7466 1793.0533 1790.7249 1788.3270 1786.3804 1784.4178 1782.2522 1780.1642 1778.0730 1775.7156 1773.3814 1771.6187 1769.3709 1767.2372 1765.1297 1763.1257 1760.6233 1758.7305 1756.2999 1754.2110 1751.9908 1750.0542 1748.1009 1748.0287 1750.0361 1751.9750 1754.5586 1756.6655 1758.8360 1760.5253 1763.1295 1765.0878 1767.0416 1769.2901 1771.6843 1773.3867 1775.5017 1777.7238 1780.0267 1782.1386 1784.5026 1786.4510 1788.5356 1790.8766 1792.8982 1794.9151
2332.7003 2330.9102 2328.7336 2326.3965 2324.4054 2322.2960 2320.0559 2317.9257 2315.8210 2313.3623 2311.3586 2309.1632 2307.3305 2305.1655 2302.7625 2300.7521 2298.4564 2296.3550 2294.5149 2292.3785 2289.9114 2287.7404 2285.8657 2283.4646 2281.6045 2279.2666 2277.1834 2275.2197 2273.0065 2270.8069 2268.3950 2266.4604 2264.2425 2262.1394 2260.0782 2258.0304 2255.6940 2253.5507 2251.2134 2249.5018 2247.0608 2244.8857 2242.6353 2240.5632 2238.8316 2236.6730 2234.2703 2232.2272 2229.8857 2227.6878 2225.9256 2223.3990 2221.4755 2219.5258 2217.4005 2215.0796 2213.1083 2210.5154 2208.3600 2206.6735 2204.0976 2202.0845 2200.1211 2197.7829 2195.7826 2193.7288 2191.4330 2189.3971 2187.3883 2185.0926 2183.0469 2180.6120 2178.3417 2176.2958 2174.0636 2171.9369 2169.7752 2167.8675 2165.7639 2163.4225 2161.4168 2159.4708 2156.9994 2154.8021 2152.8150 2150.8718 2148.8016 2146.4172 2144.0660 2142.1228 2139.8560 2137.7915 2135.6586 2133.7962 2131.5818 2129.3162 2127.2644 2125.1111 2122.9128 2120.6497 2118.7982 2116.6717 2114.2274 2112.3071 2110.1061 2107.8135 2105.7412 2103.6967 2101.6726 2099.1300 2096.8956 2094.9389 2092.7464 2090.8974 2088.6505 2086.3108 2084.3611 2082.2240 2080.2133 2077.8406 2075.7072 2073.6891 2071.3470 2069.0598 2067.1761 2064.7629 2062.6599 2060.8471 2058.6818 2056.2506 2054.1330 2052.3351 2049.9808 2047.6918 2045.7489 2043.6363 2041.2157 2039.0683 2037.0251 2035.1477 2032.9720 2030.9528 2028.5282 2026.3341 2024.1395 2022.0305 2019.7931 2018.0064 2015.5798 2013.7358 2011.3032 2009.2530 2007.2317 2004.8787 2002.9601 2000.7691 1998.7594 1996.6266 1994.4635 1992.0494 1989.9223 1987.7597 1985.8561 1983.6952 1981.6093 1979.4524 1977.2274 1975.1128 1972.9526 1970.8503 1968.5321 1966.5949 1964.5120 1962.2145 1959.9083 1958.0056 1955.9181 1953.6865 1951.4509 1949.3121 1947.1207 1945.1713 1942.6572 1940.6116 1938.3885 1936.2644 1934.5053 1932.3023 1929.7790 1928.0040 1925.8829 1923.6103 1921.6108 1919.3288 1916.8969 1914.9424 1912.9389 1910.6439 1908.4669 1906.1965 1904.1630 1902.2010 1900.0874 1897.8590 1895.7132 1893.3667 1891.2328 1889.0125 1887.0755 1884.7409 1882.9460 1880.6543 1878.6342 1876.3118 1874.2102 1872.2037 1870.0741 1867.8559 1865.4805 1863.5068 1861.2038 1859.4978 1857.0143 1855.0124 1852.9587 1850.4514 1848.6277 1846.6319 1844.3113 1842.2340 1840.1318 1837.6546 1835.8080 1833.5952 1831.2402 1829.1443 1827.1291 1824.8764 1822.8372 1820.5790 1818.5091 1816.3715 1814.3035 1812.2154 1810.0553 1807.7601 1805.7038 1803.3476 1801.4040 1799.1838 1797.2826 1794.7460 1793.0130 1790.8055 1788.6097 1786.2221 1784.1415 1782.0554 1779.9310 1777.7692 1775.5873 1773.3713 1771.2206 1769.3449 1767.3092 1765.1795 1763.0026 1760.4654 1758.6551 1756.4584 1754.4572 1752.0998 1749.7353 1747.7659 1745.7216 1745.8833 1747.9325 1750.1897 1751.8676 1754.3953 1756.4612 1758.2719 1760.4831 1763.0079 1765.0541 1767.2791 1769.2782 1771.2320 1773.3128 1775.4966 1777.8212 1780.1534 1782.1793 1784.2681 1786.5152 1788.7611 1790.6513 1793.0106
2331.5562 2329.5951 2327.3796 2325.2914 2323.1450 2320.9452 2318.4326 2316.7206 2314.4878 2312.2111 2310.1849 2307.9538 2305.9872 2303.5613 2301.7285 2299.6130 2297.0653 2295.0728 2292.8191 2290.5955 2288.5623 2286.5534 2284.2175 2282.0126 2279.9279 2278.1328 2275.5064 2273.8487 2271.2506 2269.2119 2267.2496 2264.7946 2263.1014 2260.7114 2258.7591 2256.3537 2254.4392 2251.9607 2250.2316 2247.6140 2245.5948 2243.3735 2241.4446 2239.3546 2237.3263 2234.7442 2232.7165 2230.5357 2228.7339 2226.5809 2224.1851 2222.0769 2219.9063 2217.7327 2215.6012 2213.3644 2211.3902 2208.9728 2206.8225 2204.9270 2202.8311 2200.8589 2198.2880 2196.4094 2194.1373 2192.0759 2189.8525 2187.9792 2185.8330 2183.3900 2181.2579 2179.1574 2176.9425 2175.0524 2172.9484 2170.8078 2168.5878 2166.2006 2164.1461 2161.9798 2159.9526 2157.7527 2155.4616 2153.4560 2151.4137 2149.0933 2146.9608 2144.7581 2142.7719 2140.4032 2138.3161 2135.9805 2133.9580 2131.8336 2129.8013 2127.8614 2125.2540 2123.4613 2121.3806 2119.2335 2116.7770 2114.8941 2112.6948 2110.4315 2108.1196 2106.1527 2103.8165 2101.8211 2099.6752 2097.7203 2095.2450 2093.4667 2090.9114 2088.7744 2086.7012 2084.7418 2082.5416 2080.2707 2078.5023 2075.8854 2074.1957 2071.5864 2069.5240 2067.6092 2065.3037 2063.1171 2061.0238 2058.9699 2056.9312 2054.8516 2052.5758 2050.3517 2047.9905 2046.1579 2043.7098 2041.6353 2039.5877 2037.6232 2035.1113 2033.0652 2030.8800 2028.8789 2026.8012 2024.5852 2022.5679 2020.1369 2018.1410 2015.9427 2014.0126 2011.8537 2009.6113 2007.2223 2005.4753 2002.9108 2001.0606 1998.6537 1996.6687 1994.6333 1992.5157 1990.1884 1988.2131 1985.8896 1983.5960 1981.5203 1979.6256 1977.2289 1975.3754 1973.2003 1971.0291 1968.6613 1966.6630 1964.6792 1962.5907 1960.0637 1957.8374 1955.9665 1953.5417 1951.7517 1949.6487 1947.2193 1945.0867 1943.1302 1940.8169 1938.8675 1936.5416 1934.2351 1932.5412 1930.0644 1927.9765 1925.8742 1923.9022 1921.3617 1919.6328 1917.5250 1914.8881 1913.2313 1910.7137 1908.7671 1906.6483 1904.5491 1902.4766 1899.9945 1898.1079 1895.8038 1893.5564 1891.7211 1889.1408 1887.2413 1885.3094 1883.0965 1880.6578 1878.6555 1876.6026 1874.3296 1872.3657 1869.9260 1867.9126 1865.8985 1863.5235 1861.2373 1859.2225 1857.3437 1855.0565 1853.1169 1850.6889 1848.5589 1846.4031 1844.0886 1842.2564 1839.7992 1837.7175 1835.6627 1833.4499 1831.5534 1829.4616 1827.3548 1825.0045 1823.0470 1820.8694 1818.3283 1816.1467 1814.3960 1812.0160 1809.8053 1807.6992 1805.9052 1803.2924 1801.5265 1799.2528 1797.0747 1794.9747 1792.9614 1790.8080 1788.6912 1786.5391 1784.1429 1781.8448 1779.9645 1777.8901 1775.7299 1773.2148 1771.2375 1769.0685 1767.1317 1764.9532 1762.9129 1760.6078 1758.6243 1756.1352 1754.1159 1751.9488 1749.7112 1747.5018 1745.3306 1743.5888 1743.2358 1745.4535 1747.7087 1749.7028 1751.9462 1754.2750 1756.3261 1758.5201 1760.3347 1762.6877 1765.0226 1767.2635 1769.2944 1771.5038 1773.2502 1775.5869 1777.7013 1779.9212 1782.0734 1784.2093 1786.1174 1788.4060 1790.4387
2330.0648 2327.8678 2325.7004 2323.9926 2321.8643 2319.3269 2317.5314 2314.9377 2313.0885 2310.6341 2308.8901 2306.7276 2304.3306 2302.4441 2300.1784 2297.9822 2295.6146 2293.9229 2291.4282 2289.6234 2287.0239 2284.9383 2283.1189 2280.6801 2278.8078 2276.7092 2274.0954 2271.9945 2270.0942 2268.1101 2265.6838 2263.7966 2261.4536 2259.1353 2256.9773 2255.1942 2252.8058 2250.8811 2248.4358 2246.3537 2244.1322 2241.9529 2239.7870 2237.9566 2235.7495 2233.3677 2231.5317 2228.9913 2226.8540 2225.0319 2222.8979 2220.5015 2218.5923 2216.4695 2214.2823 2212.0622 2209.6573 2207.7458 2205.7153 2203.5767 2201.0863 2199.2210 2197.0422 2194.6826 2192.5232 2190.2319 2188.3204 2186.1094 2184.0741 2181.6778 2179.9567 2177.6941 2175.6710 2173.1075 2171.2937 2168.8814 2166.9962 2164.9047 2162.6716 2160.6230 2158.2267 2156.0298 2153.8493 2151.5502 2149.4375 2147.3156 2145.3629 2143.3581 2141.1127 2139.1187 2136.5777 2134.6794 2132.1988 2130.1266 2128.3073 2125.8711 2123.6620 2121.6481 2119.5877 2117.2290 2115.4549 2112.8837 2110.7846 2108.7765 2106.5678 2104.3101 2102.0954 2100.2013 2097.8188 2095.7668 2093.9186 2091.6637 2089.4633 2087.5023 2084.9413 2082.7786 2080.9572 2078.4931 2076.4014 2074.3679 2072.1509 2070.0891 2067.8417 2065.8299 2063.6456 2061.5293 2059.4888 2056.9516 2055.2640 2053.0876 2050.7904 2048.6840 2046.5186 2044.4571 2042.1217 2039.7903 2037.6873 2035.8556 2033.3021 2031.5783 2029.2204 2027.0239 2024.7046 2022.9838 2020.4754 2018.5100 2016.5203 2014.2621 2011.8873 2009.9656 2007.6117 2005.5648 2003.3064 2001.0955 1999.3443 1996.9210 1994.6711 1992.9137 1990.5739 1988.4375 1986.2994 1984.2003 1982.1799 1980.0000 1977.8359 1975.7131 1973.2002 1971.1773 1968.9862 1966.7412 1964.8564 1962.4873 1960.3597 1958.3600 1956.1233 1954.0210 1951.8697 1949.7605 1947.5563 1945.2524 1942.9960 1941.1890 1938.8263 1936.9891 1934.6756 1932.4152 1930.4751 1928.2965 1925.9640 1923.9136 1921.8845 1919.7626 1917.5200 1915.0902 1913.1917 1910.8976 1908.6960 1906.9088 1904.7329 1902.6024 1900.4017 1898.3183 1895.8251 1893.7741 1891.5764 1889.7438 1887.3738 1885.1216 1883.1875 1881.1232 1878.6211 1876.3949 1874.5264 1872.3990 1870.3135 1867.8916 1865.9521 1863.8247 1861.6698 1859.1776 1857.0015 1855.0968 1852.9512 1850.8604 1848.8291 1846.6451 1844.1848 1842.1880 1840.0063 1838.1109 1835.8495 1833.3881 1831.2885 1829.4313 1827.3597 1824.9385 1822.8544 1820.7366 1818.5891 1816.2095 1814.3880 1811.9051 1809.9634 1807.8538 1805.8558 1803.3972 1801.3903 1799.4179 1796.9001 1794.6935 1792.9392 1790.5130 1788.6466 1786.4584 1783.9531 1782.1681 1779.8388 1777.5942 1775.7588 1773.6018 1771.0742 1769.1420 1766.8079 1764.9118 1762.7686 1760.4666 1758.2408 1756.3789 1754.2281 1751.7663 1749.6399 1747.8123 1745.2166 1743.5509 1741.2222 1741.3451 1743.2018 1745.3435 1747.7308 1749.6805 1751.9904 1754.1319 1756.3307 1758.2671 1760.4508 1762.8787 1764.6172 1767.1267 1769.0680 1771.4734 1773.5837 1775.6828 1777.7012 1779.9777 1781.7543 1784.1610 1786.1250 1788.4903
