ncols         298
nrows         32
xllcorner     100500
yllcorner     102770
cellsize      10
NODATA_value  -9999
2055.2486 2054.6828 2053.6651 2053.2246 2052.6891 2051.8104 2051.5698 2051.0194 2050.1602 2049.6478 2049.1219 2048.3701 2047.9075 2047.1087 2046.4459 2045.6077 2045.2672 2044.3788 2043.7678 2043.4104 2042.9461 2042.3569 2041.3863 2041.1482 2040.4153 2039.9020 2039.1246 2038.5810 2037.8590 2037.1868 2036.4086 2035.9655 2035.5432 2034.9832 2033.9662 2033.2802 2032.9622 2032.3933 2031.5708 2031.0265 2030.5271 2029.9963 2028.9471 2028.4870 2027.9911 2027.1343 2026.9145 2025.9881 2025.2853 2024.6281 2024.4485 2023.4200 2023.0043 2022.1590 2021.6564 2021.3425 2020.7302 2019.9389 2019.2467 2018.6051 2018.0852 2017.5364 2016.9944 2016.0080 2015.3633 2015.2016 2014.5349 2013.9253 2013.2471 2012.5271 2011.8484 2011.3094 2010.8607 2009.9572 2009.3458 2008.6111 2008.2022 2007.5015 2006.8862 2006.4527 2005.8345 2005.1723 2004.7523 2003.9885 2003.3173 2002.4606 2002.2003 2001.4671 2000.5649 2000.3820 1999.7108 1999.1577 1998.2712 1997.5225 1996.9965 1996.3632 1995.8202 1995.1212 1994.6910 1994.0409 1993.4002 1992.8890 1992.0382 1991.7409 1990.9070 1990.1096 1989.8366 1989.0732 1988.4496 1988.0878 1987.0594 1986.6429 1986.0065 1985.3273 1984.7559 1984.2319 1983.4830 1982.9619 1982.4146 1981.6383 1980.8190 1980.5178 1979.6794 1979.2401 1978.6056 1978.1790 1977.4059 1976.7457 1976.2418 1975.4965 1974.8195 1974.2092 1973.8801 1973.2532 1972.6018 1971.8838 1971.0368 1970.4692 1969.7044 1969.1020 1968.5108 1968.1263 1967.2878 1966.8122 1966.0671 1965.5960 1965.0128 1964.5387 1963.5748 1963.2483 1963.3330 1963.9155 1964.3509 1965.1981 1965.7113 1966.3778 1966.6272 1967.3687 1968.0934 1968.9292 1969.2423 1970.1944 1970.7351 1971.1024 1971.9032 1972.5501 1972.8359 1973.5126 1974.3271 1975.0641 1975.4265 1976.0353 1976.9251 1977.5623 1978.0685 1978.3442 1979.0273 1979.8251 1980.3057 1981.0617 1981.7500 1982.4625 1982.9374 1983.6640 1984.1637 1984.8110 1985.2466 1985.7654 1986.8306 1987.3669 1988.0663 1988.5923 1988.9030 1989.8693 1990.1377 1991.0019 1991.7261 1992.0624 1992.5436 1993.1888 1994.1160 1994.4774 1995.2014 1995.9100 1996.2838 1997.0360 1997.7015 1998.4351 1998.8247 1999.6337 2000.1070 2000.6232 2001.4932 2002.1869 2002.4062 2003.3301 2004.1059 2004.6354 2005.1959 2005.6508 2006.3739 2006.9319 2007.5304 2007.9694 2008.6966 2009.2530 2010.1975 2010.4728 2011.3917 2011.7167 2012.5027 2012.9721 2013.8740 2014.1758 2015.2380 2015.8493 2016.1560 2016.7291 2017.3961 2018.0854 2018.5643 2019.5577 2020.0364 2020.5983 2021.2831 2021.8555 2022.3400 2022.9468 2023.6867 2024.4275 2024.8987 2025.6562 2026.2924 2026.7207 2027.4706 2027.9912 2028.6640 2029.2881 2029.9406 2030.5922 2031.0929 2031.7947 2032.3512 2032.7897 2033.3254 2034.0767 2034.6763 2035.2628 2036.1017 2036.6548 2037.1424 2037.9710 2038.4342 2039.0038 2039.7454 2040.3638 2041.0233 2041.5215 2042.0766 2042.8874 2043.3201 2043.9648 2044.4328 2045.0770 2045.7224 2046.4733 2047.1140 2047.5211 2048.4309 2049.0966 2049.6202 2050.1010 2050.7040 2051.3519 2052.0665 2052.8147 2053.0729 2054.0538
2053.8820 2053.0632 2052.5348 2052.0436 2051.2176 2050.5188 2050.2856 2049.3779 2048.8643 2048.3733 2047.7808 2047.2104 2046.5769 2045.6729 2045.2145 2044.4921 2043.9744 2043.1290 2042.7170 2041.8092 2041.4504 2040.7290 2039.9773 2039.4895 2038.7719 2038.2969 2037.5683 2037.1172 2036.3984 2036.0842 2035.0269 2034.8231 2033.7896 2033.2610 2032.7585 2031.9930 2031.4161 2030.9156 2030.3350 2029.6159 2028.8850 2028.3327 2027.8490 2027.2961 2026.5527 2026.1037 2025.2559 2024.7780 2024.2818 2023.4958 2023.0264 2022.0603 2021.5401 2020.8596 2020.3504 2019.6278 2019.2248 2018.6459 2017.9096 2017.3071 2016.7951 2016.1667 2015.5916 2014.8858 2014.2411 2013.6491 2013.1520 2012.3327 2011.8279 2011.3148 2010.3956 2009.8446 2009.4652 2008.4068 2007.7894 2007.3228 2006.9896 2005.9793 2005.3866 2004.7108 2004.5242 2003.9187 2002.9964 2002.4411 2001.8989 2001.4752 2000.6726 1999.7805 1999.1532 1998.8596 1997.9363 1997.4892 1996.8468 1996.3422 1995.8222 1995.0203 1994.3638 1993.8024 1993.0407 1992.4184 1991.8989 1991.2292 1990.7849 1990.2542 1989.4328 1988.6293 1988.1176 1987.4714 1986.9417 1986.1491 1985.9759 1985.0449 1984.3258 1984.0908 1983.2567 1982.9064 1981.8434 1981.6155 1981.0394 1980.0929 1979.3852 1979.1217 1978.4578 1977.7781 1977.0690 1976.4040 1975.7936 1975.4626 1974.6632 1973.8624 1973.2485 1972.5698 1972.1731 1971.7443 1970.7849 1970.4142 1969.7605 1969.2051 1968.4186 1967.9420 1967.0456 1966.5303 1966.2274 1965.3926 1964.5043 1964.3657 1963.5399 1962.8976 1962.1919 1961.8261 1961.6848 1962.0642 1962.7978 1963.4722 1964.2532 1964.9376 1965.5279 1966.1327 1966.7017 1967.0311 1967.6266 1968.2746 1968.8617 1969.7777 1970.1587 1971.0978 1971.5441 1971.9220 1972.7868 1973.4743 1974.0230 1974.5760 1975.4316 1976.0850 1976.5186 1977.2555 1977.7227 1978.4005 1979.1938 1979.8056 1980.1000 1980.7902 1981.3935 1982.2602 1982.8857 1983.3100 1983.7639 1984.5422 1985.1484 1985.7336 1986.3834 1987.1317 1987.3837 1988.3327 1988.8455 1989.2477 1990.1777 1990.5763 1991.5019 1992.0828 1992.6993 1993.2162 1994.0426 1994.4904 1995.0350 1995.4379 1996.4961 1996.9625 1997.3577 1998.1203 1998.6435 1999.5965 1999.8561 2000.4122 2001.3414 2001.6684 2002.3525 2003.1598 2003.8239 2004.1266 2004.7338 2005.6457 2006.3670 2006.9525 2007.3692 2008.1539 2008.6940 2009.0427 2010.0739 2010.5042 2011.0960 2011.9908 2012.2412 2012.7382 2013.8090 2014.4083 2015.0646 2015.6504 2015.9485 2016.5578 2017.2300 2018.1667 2018.5674 2019.2023 2019.5558 2020.1607 2021.1902 2021.5008 2022.1129 2022.7423 2023.7236 2024.3566 2024.8396 2025.1533 2025.9847 2026.3744 2027.2707 2027.9797 2028.5787 2028.8884 2029.6924 2030.4261 2030.7223 2031.3855 2032.3467 2032.5864 2033.2174 2033.8994 2034.4000 2035.0222 2035.8509 2036.2372 2037.1947 2037.7381 2038.3075 2038.8294 2039.4887 2040.0498 2040.5758 2041.3897 2041.8433 2042.7085 2043.1290 2043.6582 2044.4420 2045.2958 2045.5301 2046.5916 2047.1853 2047.8147 2048.0697 2048.6700 2049.3529 2050.0002 2050.7366 2051.4306 2051.8835 2052.4207
2052.3464 2051.8760 2051.4739 2050.3782 2049.9149 2049.5531 2048.9574 2048.1818 2047.5633 2046.8466 2046.3239 2045.6327 2045.1383 2044.1879 2043.5991 2043.2239 2042.3737 2041.8940 2041.3607 2040.9043 2039.8852 2039.6047 2038.8628 2038.3364 2037.7985 2037.0113 2036.1443 2035.8128 2034.9059 2034.2599 2034.0903 2033.2372 2032.6979 2031.9514 2031.6563 2030.8781 2030.0588 2029.5829 2028.9149 2028.3725 2027.6346 2026.9020 2026.4468 2025.9482 2025.1300 2024.6280 2024.0752 2023.4578 2022.7777 2022.1018 2021.5226 2021.0331 2020.4501 2019.4670 2018.9037 2018.4593 2017.6765 2017.0625 2016.3327 2016.1241 2015.0986 2014.7398 2014.0869 2013.5394 2012.5934 2012.3637 2011.5673 2011.0938 2010.5488 2009.8050 2008.8719 2008.3480 2008.1074 2007.1267 2006.4463 2006.1033 2005.4078 2004.9620 2004.2897 2003.5608 2002.9404 2002.0599 2001.7259 2001.0508 2000.1977 1999.5963 1999.0788 1998.4038 1997.8778 1997.2495 1996.6942 1996.0400 1995.2465 1995.0268 1994.2210 1993.5798 1992.9985 1992.5174 1991.9480 1991.0922 1990.6887 1990.1163 1989.3958 1988.7014 1988.1840 1987.3753 1986.6460 1986.3416 1985.4377 1985.0505 1984.2278 1983.5456 1983.3241 1982.7034 1981.9855 1981.4552 1980.5019 1979.8034 1979.4717 1978.6492 1977.9963 1977.7437 1976.7613 1976.2355 1975.5189 1974.9602 1974.2405 1973.7888 1973.1996 1972.4862 1971.9432 1971.0564 1970.7451 1970.3016 1969.2254 1968.9261 1968.2304 1967.7086 1966.7879 1966.2348 1965.5667 1964.8597 1964.2730 1963.9204 1963.2791 1962.4441 1962.0150 1961.2815 1960.9950 1960.2764 1960.0183 1960.6764 1961.5818 1961.8760 1962.4456 1963.2260 1963.9892 1964.5614 1965.2644 1965.6866 1966.3868 1966.9251 1967.4670 1968.0981 1968.9893 1969.2456 1970.2235 1970.6486 1971.1771 1971.9897 1972.6290 1973.3189 1973.9665 1974.2411 1974.7829 1975.7045 1976.0550 1976.7474 1977.3953 1978.3378 1978.8142 1979.5854 1979.9303 1980.6864 1981.3716 1982.0439 1982.6991 1983.2460 1983.8722 1984.0977 1984.6975 1985.7234 1986.0101 1986.8570 1987.6152 1988.0483 1988.5520 1989.3945 1990.0368 1990.5749 1991.0947 1991.5132 1992.4123 1992.7424 1993.6323 1994.3685 1994.7614 1995.6681 1996.2995 1996.5446 1997.0872 1998.0609 1998.6707 1999.0949 1999.8959 2000.4507 2001.2601 2001.7937 2002.3832 2003.0327 2003.5488 2004.2566 2004.5739 2005.1730 2005.9853 2006.8574 2007.1621 2008.0125 2008.5277 2009.1864 2009.8458 2010.4607 2011.0036 2011.8125 2012.2266 2012.9555 2013.4706 2014.0197 2014.6205 2015.2036 2015.7891 2016.6546 2017.2737 2017.9782 2018.3387 2019.1147 2019.5473 2020.3610 2020.8033 2021.4959 2022.0606 2022.9223 2023.5892 2024.0417 2024.8340 2025.3059 2026.0509 2026.3407 2027.1915 2027.8817 2028.1964 2028.6851 2029.7912 2030.0120 2030.8798 2031.3194 2031.8655 2032.4375 2033.3107 2033.9805 2034.6202 2034.9772 2035.5426 2036.5410 2036.7366 2037.4400 2038.3857 2038.9890 2039.3614 2039.9914 2040.4919 2041.1093 2041.9875 2042.4537 2043.0926 2043.7075 2044.6624 2044.8084 2045.6150 2046.1667 2046.8023 2047.7685 2048.2219 2048.8031 2049.2725 2049.8649 2050.6081 2051.0407
2051.2027 2050.6307 2049.8763 2049.3704 2048.8571 2047.8217 2047.5124 2047.0510 2045.9532 2045.4690 2045.0980 2044.1374 2043.8134 2043.1686 2042.5256 2041.8295 2041.0792 2040.4300 2039.8391 2039.3343 2038.6238 2038.0246 2037.6933 2037.0459 2036.2827 2035.6288 2034.7702 2034.1504 2033.7188 2032.9571 2032.2950 2032.1503 2031.3556 2030.6760 2030.2362 2029.4350 2029.0391 2028.2758 2027.7534 2027.0922 2026.3916 2025.5962 2025.3021 2024.4568 2024.0729 2023.1764 2022.4646 2021.9366 2021.1170 2020.5860 2019.9225 2019.3144 2018.7281 2018.1312 2017.7836 2016.8369 2016.5126 2015.8003 2015.0513 2014.3278 2013.7736 2013.4232 2012.8260 2012.2582 2011.5630 2010.5786 2010.0729 2009.5539 2009.1892 2008.2668 2007.7133 2007.1303 2006.2458 2005.7041 2005.2473 2004.5139 2004.1733 2003.3037 2002.9126 2002.3117 2001.4694 2000.7070 2000.1088 1999.8262 1999.1428 1998.4270 1997.8309 1997.0464 1996.5580 1995.7002 1995.3581 1994.6855 1993.8826 1993.3170 1992.9242 1992.3355 1991.7434 1990.7042 1990.3514 1989.7639 1988.9833 1988.2564 1987.8676 1987.1862 1986.6141 1986.0251 1985.1063 1984.6796 1984.0645 1983.4135 1982.9413 1982.2737 1981.5677 1981.1999 1980.6106 1980.0057 1978.9673 1978.4773 1977.8621 1977.1888 1976.6897 1976.0623 1975.6088 1974.7368 1974.3894 1973.4765 1973.1391 1972.0639 1971.7251 1971.2643 1970.5225 1969.8052 1969.1374 1968.3520 1967.9266 1967.2045 1966.8589 1965.8716 1965.3704 1964.7277 1964.3804 1963.8114 1963.1027 1962.6069 1961.8048 1961.0781 1960.5007 1960.1167 1959.1423 1958.7702 1958.7857 1959.1724 1959.9175 1960.6375 1961.0340 1961.5097 1962.3516 1963.1341 1963.8067 1964.2627 1965.0104 1965.6726 1965.8813 1966.4896 1967.4376 1968.0836 1968.5948 1969.0667 1970.0156 1970.3969 1970.9310 1971.8787 1972.2017 1973.0528 1973.7642 1974.0818 1974.8689 1975.5486 1976.0680 1976.4586 1977.4597 1978.0346 1978.4604 1978.9098 1979.6798 1980.4094 1981.0549 1981.4427 1982.1466 1982.8637 1983.5539 1983.8803 1984.8186 1985.2936 1985.8243 1986.6049 1987.2251 1987.6027 1988.2037 1989.1497 1989.7231 1990.5333 1990.7219 1991.6735 1992.2468 1992.7048 1993.3860 1993.8716 1994.8605 1995.4389 1996.0300 1996.3139 1996.8926 1997.8492 1998.5927 1999.1210 1999.6418 2000.1933 2000.9904 2001.6059 2002.2825 2002.9407 2003.1903 2003.8490 2004.6081 2005.1562 2005.8155 2006.3199 2006.9550 2007.5015 2008.4035 2009.1569 2009.7908 2009.9347 2010.9181 2011.2037 2012.0572 2012.8254 2013.1354 2014.0525 2014.4035 2015.0030 2015.5904 2016.6029 2017.1322 2017.7779 2018.2726 2018.8444 2019.7062 2019.9887 2020.9752 2021.3355 2022.0784 2022.7872 2023.0452 2023.9574 2024.2337 2024.9862 2025.5626 2026.0749 2026.7430 2027.7890 2028.0775 2028.8631 2029.4841 2030.2608 2030.7682 2031.2962 2031.7695 2032.3277 2033.3482 2033.9594 2034.4399 2035.2126 2035.4198 2036.2951 2036.9433 2037.3441 2037.9007 2038.6711 2039.4264 2040.1928 2040.6878 2041.1901 2041.9337 2042.6845 2043.1253 2043.9155 2044.2585 2045.1574 2045.3625 2045.9961 2047.0304 2047.2228 2048.2456 2048.6183 2049.5153 2049.6925
2049.9097 2049.4180 2048.4465 2047.8093 2047.3498 2046.5676 2046.2384 2045.6947 2044.7562 2044.4704 2043.7241 2043.0235 2042.2141 2041.7034 2041.2628 2040.6167 2040.0136 2039.4333 2038.5825 2037.9049 2037.5079 2036.6189 2036.4012 2035.7241 2034.9472 2034.0904 2033.5406 2033.2884 2032.4384 2031.9845 2031.1104 2030.6613 2030.1082 2029.0892 2028.5471 2028.1530 2027.5785 2026.6853 2026.0466 2025.6367 2025.0839 2024.1050 2023.8015 2023.0948 2022.3079 2022.0492 2021.3132 2020.8051 2019.8350 2019.1498 2018.8224 2018.3237 2017.4115 2016.9873 2016.0778 2015.5778 2014.8118 2014.4164 2013.8592 2012.9785 2012.3431 2011.7166 2011.4866 2010.7612 2009.9105 2009.2329 2008.7475 2008.4023 2007.4880 2007.0938 2006.3912 2005.5399 2004.8629 2004.2454 2003.8553 2003.4107 2002.6258 2001.7995 2001.2967 2000.6545 2000.3038 1999.6249 1998.9888 1998.3353 1997.6470 1996.7895 1996.5258 1995.6887 1995.0346 1994.6699 1993.8929 1993.2901 1992.4640 1992.0637 1991.3088 1990.8167 1990.2045 1989.4618 1989.0385 1988.3196 1987.6855 1987.2111 1986.4757 1985.5344 1985.3219 1984.3341 1984.0486 1983.2174 1982.4365 1981.8549 1981.3684 1980.5667 1980.3829 1979.3755 1979.1569 1978.0844 1977.9104 1977.2521 1976.2848 1975.8759 1975.1574 1974.4679 1974.0784 1973.3480 1972.8282 1972.0157 1971.3872 1971.0365 1970.2735 1969.3515 1969.0950 1968.1995 1967.7553 1967.2519 1966.3842 1965.8810 1965.1530 1964.7423 1963.9349 1963.4736 1962.7404 1962.2012 1961.4448 1960.8995 1960.3795 1959.8494 1958.8487 1958.1470 1957.7097 1957.3247 1957.1424 1957.7554 1958.5718 1958.9446 1959.6981 1960.2731 1960.7084 1961.4396 1962.2243 1962.5899 1963.4363 1964.2254 1964.5806 1965.3112 1965.6326 1966.3026 1966.9553 1967.6070 1968.4884 1968.9948 1969.7792 1970.0195 1970.7576 1971.3779 1972.2214 1972.5096 1973.3726 1974.0870 1974.6835 1975.0278 1975.6238 1976.6531 1977.0599 1977.7404 1978.4141 1978.8557 1979.6782 1980.2169 1980.5479 1981.2737 1982.1750 1982.7247 1983.4770 1983.8627 1984.4784 1985.0438 1985.8286 1986.4424 1987.1669 1987.4001 1988.1701 1988.8139 1989.6988 1990.2057 1990.5669 1991.4450 1991.8570 1992.5881 1993.4187 1993.7591 1994.4642 1995.1593 1995.7041 1996.1356 1996.8317 1997.8003 1998.4216 1998.6270 1999.4472 2000.0553 2000.7415 2001.2132 2002.0248 2002.3445 2003.2499 2003.5844 2004.3188 2005.1640 2005.6858 2006.2458 2006.7459 2007.4607 2008.1672 2008.9908 2009.5701 2010.1389 2010.8077 2011.3545 2011.7314 2012.5010 2013.0226 2013.6825 2014.2807 2015.1926 2015.8676 2016.4665 2016.7600 2017.6157 2018.3198 2018.5374 2019.3251 2019.7766 2020.6526 2021.1217 2021.9659 2022.3968 2023.1221 2023.7533 2024.1300 2024.7261 2025.6728 2026.2621 2026.7888 2027.2025 2028.0859 2028.7555 2029.3444 2029.8351 2030.3703 2031.0105 2031.6285 2032.5013 2032.8399 2033.7718 2034.0518 2034.7771 2035.2902 2036.0877 2036.7445 2037.1743 2038.1931 2038.4797 2039.0196 2040.0118 2040.3900 2041.1508 2042.0037 2042.2357 2043.1946 2043.8692 2044.3939 2044.9525 2045.6900 2045.8792 2046.9235 2047.2747 2047.8574 2048.6789
2048.4398 2047.7054 2047.4764 2046.5151 2045.8296 2045.2800 2044.6261 2043.9202 2043.3791 2043.1128 2042.4699 2041.4855 2041.1183 2040.2677 2039.5559 2039.4192 2038.4979 2038.1241 2037.4502 2036.6870 2035.8623 2035.5096 2034.5845 2034.0362 2033.3714 2032.8400 2032.5646 2031.6671 2031.0634 2030.3644 2029.7039 2029.0492 2028.4558 2027.8501 2027.2515 2026.7758 2026.3086 2025.3054 2024.8944 2024.3930 2023.5524 2022.7264 2022.0955 2021.5262 2021.1874 2020.3674 2019.9863 2019.1356 2018.4035 2017.9086 2017.2822 2016.5505 2016.1707 2015.2961 2015.0997 2014.4306 2013.7269 2013.1922 2012.3954 2011.5749 2010.9622 2010.5634 2009.8743 2009.2768 2008.8319 2008.0028 2007.5031 2006.5537 2006.2292 2005.4552 2004.9751 2004.3625 2003.6674 2002.9755 2002.4257 2001.7980 2001.2109 2000.5633 1999.7362 1999.4092 1998.4525 1997.7948 1997.4894 1996.6734 1996.0710 1995.3640 1994.6907 1994.2814 1993.8778 1993.1331 1992.4819 1991.8343 1991.1690 1990.5476 1989.8841 1989.1736 1988.6558 1988.0264 1987.5358 1986.9001 1986.2080 1985.5832 1984.7252 1984.1044 1983.4625 1983.1102 1982.5334 1981.6483 1981.1428 1980.4672 1980.0074 1979.5100 1978.7002 1977.9729 1977.3996 1977.0122 1976.0315 1975.6571 1974.8134 1974.3702 1973.7809 1973.0850 1972.4728 1972.0738 1971.4572 1970.6316 1970.0201 1969.4953 1968.5826 1968.2317 1967.5843 1966.6591 1966.0553 1965.5083 1965.0315 1964.3946 1963.6238 1963.1014 1962.5623 1961.9834 1961.1484 1960.8314 1959.8181 1959.5376 1958.6225 1958.1663 1957.6323 1956.9438 1956.2587 1955.8531 1955.7249 1956.5002 1956.9263 1957.4904 1958.2054 1958.7243 1959.4245 1960.2130 1960.5650 1961.4332 1961.7672 1962.5753 1963.0526 1963.5943 1964.3039 1965.0861 1965.3875 1966.2326 1966.7875 1967.7013 1968.1145 1968.8751 1969.5845 1969.8691 1970.4304 1971.2340 1971.6371 1972.2499 1973.1765 1973.7859 1974.2051 1975.1319 1975.3490 1976.1848 1976.9086 1977.4111 1978.2496 1978.8192 1979.4019 1980.1915 1980.4644 1981.1031 1981.7532 1982.5720 1983.0681 1983.9219 1984.1176 1985.1349 1985.6391 1986.1828 1986.8475 1987.3198 1988.0226 1988.5248 1989.0787 1990.0510 1990.3522 1991.1150 1991.5562 1992.2118 1993.0260 1993.8551 1994.2618 1994.8686 1995.5911 1996.2861 1996.9816 1997.5876 1997.8068 1998.4843 1999.0831 1999.6621 2000.6339 2001.2304 2001.5760 2002.2878 2003.1235 2003.5654 2004.0501 2004.9675 2005.7380 2005.9608 2006.8190 2007.2033 2008.2137 2008.4971 2009.0656 2009.7668 2010.3338 2011.0215 2011.7219 2012.4147 2012.9042 2013.5214 2014.4862 2015.0799 2015.3376 2016.3354 2016.7708 2017.5342 2017.7937 2018.8155 2019.1187 2019.6458 2020.2570 2021.1730 2021.7011 2022.1244 2022.9145 2023.6481 2024.2975 2024.9771 2025.2861 2026.1604 2026.5418 2027.3687 2027.9472 2028.5702 2029.4425 2029.7508 2030.3099 2030.8362 2031.8543 2032.1664 2032.7542 2033.5128 2034.4304 2034.9101 2035.3843 2035.8612 2036.8380 2037.0626 2037.9288 2038.5020 2039.2764 2039.6328 2040.2546 2041.1947 2041.8813 2042.4407 2042.9741 2043.7049 2044.1918 2044.7428 2045.4610 2046.0959 2046.4726 2047.1764
2047.0428 2046.8180 2045.7666 2045.5619 2044.5505 2044.0967 2043.5783 2042.9881 2042.2410 2041.5844 2041.2097 2040.5898 2039.7637 2039.3250 2038.3124 2037.7608 2037.2969 2036.7603 2035.9852 2035.3517 2034.7439 2034.2109 2033.5539 2032.6170 2032.0899 2031.5811 2030.8979 2030.3232 2029.7527 2029.3086 2028.6721 2027.8965 2027.3147 2026.4255 2026.1787 2025.5330 2024.5900 2023.9871 2023.2492 2022.7709 2022.3679 2021.5399 2021.0480 2020.1173 2019.8820 2019.3179 2018.6315 2017.9199 2017.0025 2016.3906 2015.7827 2015.3893 2014.7395 2014.0171 2013.5422 2012.9181 2012.0677 2011.7857 2011.0456 2010.3422 2009.6165 2009.0240 2008.5346 2007.6423 2007.3537 2006.4911 2005.8962 2005.4958 2004.8964 2004.1613 2003.4808 2003.0944 2002.3683 2001.5819 2001.1548 2000.1530 1999.8287 1999.2298 1998.4876 1997.6744 1997.2510 1996.4569 1995.8263 1995.1368 1994.5812 1993.9051 1993.3292 1993.0357 1992.1514 1991.6765 1990.8667 1990.1961 1989.7885 1989.1993 1988.6864 1988.0287 1987.3477 1986.6436 1985.8749 1985.3384 1984.8078 1984.2929 1983.6955 1982.9537 1982.2871 1981.7745 1980.9380 1980.1754 1979.6236 1979.0528 1978.4270 1977.8115 1977.4810 1976.8314 1975.9267 1975.2274 1974.6684 1973.8948 1973.6017 1972.9430 1972.3398 1971.5740 1971.1081 1970.1743 1969.9820 1968.8868 1968.5974 1967.8396 1967.1014 1966.5300 1966.1624 1965.3607 1964.6713 1964.1252 1963.4868 1962.7947 1962.2971 1961.8298 1960.9624 1960.5611 1959.9123 1959.3476 1958.4317 1958.0105 1957.1227 1956.5383 1956.0113 1955.6337 1954.7180 1954.0744 1954.2570 1954.8597 1955.3090 1955.8331 1956.5277 1957.2781 1958.0367 1958.5442 1959.2598 1959.7789 1960.2702 1960.9636 1961.6996 1962.1897 1962.7358 1963.3905 1964.2616 1964.6164 1965.3078 1966.1142 1966.7552 1967.1546 1967.7045 1968.6226 1968.9424 1969.8402 1970.5062 1971.1794 1971.4500 1972.3469 1973.1036 1973.4071 1974.2434 1974.6188 1975.3276 1976.2432 1976.6008 1977.2928 1977.8883 1978.4397 1979.3473 1979.8997 1980.1645 1981.0319 1981.7535 1982.2187 1982.8800 1983.4055 1984.3582 1984.8664 1985.4041 1985.8128 1986.7264 1987.1511 1987.8239 1988.5605 1989.0530 1989.5689 1990.5262 1990.8783 1991.4663 1992.0861 1992.7324 1993.7039 1994.2842 1994.5680 1995.4012 1995.9097 1996.3926 1997.2697 1997.8208 1998.6856 1999.3426 1999.6031 2000.5387 2000.8044 2001.6211 2002.3880 2002.6333 2003.5214 2004.1556 2004.9237 2005.4912 2006.0976 2006.4468 2007.1285 2007.7557 2008.4871 2008.9799 2009.9507 2010.1382 2010.9486 2011.5831 2012.4358 2012.6116 2013.4944 2014.3245 2014.5550 2015.1144 2015.8725 2016.3768 2017.2745 2017.9333 2018.2710 2018.9178 2019.7318 2020.2682 2020.9996 2021.4709 2022.3718 2023.0990 2023.3739 2024.0855 2024.9197 2025.1634 2026.1360 2026.6816 2026.9873 2028.0862 2028.4741 2029.1963 2029.9201 2030.2242 2030.8288 2031.7493 2032.3894 2032.9594 2033.4825 2034.1848 2034.4823 2035.4554 2036.1505 2036.7783 2037.0941 2037.6521 2038.5603 2039.3096 2039.5050 2040.3928 2040.9216 2041.6477 2042.2247 2042.8859 2043.4696 2043.9672 2044.6729 2045.4711 2046.0588
2045.6598 2045.2621 2044.8481 2043.9553 2043.6297 2042.7088 2042.0520 2041.4799 2040.9253 2040.2860 2039.5881 2039.1935 2038.4529 2037.7733 2037.2697 2036.5255 2035.7769 2035.0381 2034.6359 2034.0643 2033.5352 2032.7733 2032.0745 2031.4904 2030.9578 2030.1355 2029.7987 2029.1096 2028.2634 2027.7396 2026.9031 2026.3842 2025.6622 2025.0195 2024.3986 2024.1961 2023.1849 2022.8439 2022.1252 2021.6463 2021.0602 2020.0514 2019.4906 2019.2169 2018.4607 2017.5259 2017.0370 2016.7247 2015.6283 2014.9986 2014.5826 2013.9882 2013.3035 2012.5917 2012.0259 2011.6771 2010.6131 2010.2990 2009.7453 2009.1014 2008.2844 2007.7591 2007.1131 2006.4008 2005.7037 2005.3627 2004.6261 2004.1173 2003.5391 2002.8069 2002.1984 2001.4291 2000.8341 2000.0578 1999.4792 1999.1703 1998.3758 1997.9489 1997.3190 1996.5752 1995.6355 1995.3146 1994.6535 1993.7217 1993.3038 1992.7487 1992.2080 1991.5037 1990.7043 1990.0640 1989.6336 1988.9780 1988.2505 1987.5692 1987.0293 1986.4208 1985.7586 1985.3570 1984.4009 1983.9861 1983.2626 1982.5700 1982.1476 1981.4319 1980.9344 1980.1916 1979.7907 1978.8540 1978.2149 1977.6156 1977.2837 1976.4407 1976.0156 1975.2074 1974.4170 1973.7455 1973.1312 1972.4992 1972.1514 1971.1860 1970.7079 1970.0734 1969.6412 1968.8450 1968.3449 1967.7502 1967.1413 1966.6171 1965.7100 1965.3823 1964.7467 1963.7175 1963.4540 1962.7391 1961.9494 1961.5541 1960.7107 1960.2608 1959.4115 1958.7594 1958.4557 1957.6436 1957.0489 1956.2048 1955.6381 1955.1608 1954.2680 1954.0801 1953.4697 1952.6000 1952.6642 1953.4235 1953.9214 1954.4756 1955.1448 1955.6025 1956.3906 1957.0820 1957.6424 1958.1023 1958.8000 1959.5855 1960.0978 1960.6602 1961.2267 1961.8329 1962.6653 1963.2023 1964.1237 1964.6024 1965.0325 1965.7535 1966.5557 1967.1592 1967.4098 1968.1659 1968.6563 1969.5965 1970.0573 1970.9627 1971.3942 1972.0712 1972.9023 1973.2246 1974.0708 1974.6301 1975.3167 1975.8051 1976.3259 1976.8743 1977.5066 1978.3539 1978.7803 1979.3985 1980.4087 1980.9547 1981.4651 1982.2662 1982.8418 1983.4058 1983.7683 1984.6994 1985.3066 1986.0517 1986.5315 1986.9987 1987.5416 1988.2570 1988.8042 1989.5054 1990.2132 1990.6969 1991.5568 1992.1720 1992.6368 1993.4071 1993.7259 1994.5252 1995.2313 1995.6572 1996.3593 1996.9575 1997.6477 1998.2584 1999.0995 1999.7683 2000.2420 2000.8559 2001.5947 2002.1228 2002.7503 2003.5620 2003.8698 2004.3793 2005.0575 2005.9615 2006.6379 2007.0143 2007.4660 2008.3120 2008.7479 2009.6998 2010.1638 2010.8286 2011.2360 2012.2227 2012.5802 2013.3057 2013.8105 2014.5864 2015.4202 2015.8533 2016.4541 2017.3457 2017.9088 2018.1684 2019.0448 2019.5566 2020.0790 2020.9175 2021.6011 2022.1616 2022.7121 2023.4653 2024.0816 2024.7885 2025.4206 2026.0449 2026.7227 2026.9734 2027.5768 2028.3585 2028.7563 2029.7757 2030.4559 2030.7453 2031.5030 2031.9756 2032.8222 2033.4035 2033.9506 2034.6969 2035.2592 2035.9394 2036.5256 2037.1227 2037.9768 2038.3904 2038.9201 2039.8687 2040.3965 2040.8109 2041.2955 2042.2637 2042.6366 2043.3956 2044.0878 2044.8621
2044.3604 2044.0118 2043.1700 2042.8886 2042.2093 2041.5884 2040.8692 2040.0317 2039.3255 2038.9896 2038.3464 2037.6871 2036.9330 2036.3964 2035.7986 2035.1435 2034.7582 2033.9229 2033.2476 2032.8869 2031.8933 2031.3481 2030.6758 2030.1276 2029.2864 2028.7134 2028.2469 2027.6124 2026.9509 2026.1787 2025.6023 2025.2744 2024.4369 2023.6601 2023.2482 2022.4500 2021.9368 2021.4625 2020.8635 2020.2931 2019.5405 2019.0917 2018.1381 2017.7153 2017.0739 2016.2304 2015.4979 2015.2022 2014.4163 2014.0318 2013.2045 2012.6333 2011.8668 2011.5247 2010.7651 2010.2739 2009.6276 2008.8850 2008.4280 2007.8151 2007.0256 2006.3232 2005.6485 2005.1709 2004.3636 2003.6864 2003.1573 2002.4725 2002.0007 2001.5226 2000.7619 2000.1531 1999.6661 1998.6923 1998.1076 1997.7034 1996.7204 1996.4755 1995.7612 1994.9295 1994.5861 1993.9048 1993.2024 1992.4443 1992.0749 1991.3761 1990.4640 1989.9537 1989.5192 1988.7564 1988.3158 1987.7462 1986.8503 1986.1115 1985.8041 1985.2246 1984.4419 1983.6500 1982.8685 1982.2788 1981.6920 1981.2019 1980.4665 1979.8842 1979.1296 1978.7923 1978.0173 1977.5491 1977.0674 1976.1382 1975.4470 1975.2069 1974.5461 1973.4718 1973.0495 1972.2863 1972.0619 1971.2185 1970.8206 1970.1726 1969.5593 1968.5816 1967.9603 1967.6031 1966.8003 1966.0014 1965.3478 1964.8291 1964.4125 1963.8937 1963.0569 1962.6047 1961.9927 1961.2061 1960.7489 1960.0349 1959.4825 1958.6484 1957.9945 1957.2876 1956.7026 1956.2236 1955.6072 1955.0737 1954.0591 1953.3986 1952.8814 1952.5890 1951.6306 1950.9041 1951.0056 1951.6046 1952.4467 1953.2061 1953.5432 1954.3999 1954.8806 1955.5745 1956.3013 1956.6503 1957.4765 1957.9248 1958.4337 1959.2540 1959.6588 1960.4328 1961.0671 1961.7701 1962.2562 1963.2061 1963.6556 1964.5097 1965.1224 1965.5903 1966.0541 1966.7624 1967.5799 1967.9794 1968.6712 1969.2151 1969.8781 1970.6623 1971.2140 1971.9349 1972.3801 1972.9218 1973.6761 1974.4891 1974.8687 1975.5112 1976.3635 1976.5975 1977.4199 1977.9383 1978.5468 1979.5928 1980.0621 1980.8354 1981.4784 1982.0778 1982.6495 1983.1877 1983.5035 1984.1951 1985.0529 1985.7155 1986.1688 1986.6446 1987.5641 1988.2119 1988.8042 1989.3747 1989.7919 1990.7009 1991.0696 1992.0139 1992.4934 1993.3315 1993.8007 1994.4510 1994.9970 1995.7985 1996.1435 1996.8070 1997.3865 1998.3676 1998.9613 1999.3143 2000.2491 2000.7358 2001.2077 2001.8990 2002.5096 2003.3766 2003.9882 2004.3871 2005.3005 2005.5267 2006.2665 2007.0470 2007.5911 2008.1458 2008.6204 2009.4180 2009.9184 2010.6606 2011.5142 2011.9892 2012.8102 2013.3645 2013.6435 2014.5113 2014.9468 2015.6538 2016.3506 2016.9194 2017.8423 2018.3857 2018.6436 2019.5903 2020.2872 2020.8259 2021.4221 2022.1524 2022.5797 2023.1041 2023.8132 2024.6672 2025.2971 2025.7094 2026.3109 2027.1785 2027.5654 2028.1941 2028.9595 2029.7169 2030.0326 2030.6669 2031.5978 2031.9437 2032.6792 2033.5146 2033.8418 2034.5590 2035.2334 2035.8698 2036.2072 2037.2358 2037.4357 2038.3587 2039.0559 2039.7156 2040.1921 2041.0236 2041.4419 2041.9756 2042.8332 2043.2104
2043.4857 2042.8519 2042.2539 2041.5526 2040.6371 2040.3648 2039.6556 2038.9367 2038.2925 2037.7757 2036.8685 2036.3268 2035.7070 2035.0523 2034.3854 2033.6452 2033.0590 2032.5431 2031.9076 2031.3119 2030.8371 2030.1859 2029.5879 2028.7648 2028.0471 2027.3506 2026.8937 2026.4823 2025.6204 2025.0104 2024.5102 2023.7562 2023.0769 2022.5102 2022.1230 2021.1329 2020.4587 2019.8678 2019.5829 2018.5939 2017.9553 2017.5053 2016.7767 2016.0390 2015.3805 2015.2118 2014.1487 2013.7727 2012.8977 2012.6847 2011.6041 2011.2110 2010.7457 2009.7794 2009.1180 2008.7887 2008.1647 2007.5747 2006.9666 2006.3468 2005.5173 2005.0622 2004.3055 2003.4646 2003.2324 2002.4511 2001.5408 2001.1328 2000.3091 1999.9670 1999.5206 1998.6878 1998.0335 1997.5882 1996.9568 1996.1943 1995.7447 1995.0004 1994.0118 1993.6352 1992.9640 1992.5991 1991.9192 1991.0902 1990.5914 1989.9981 1989.0959 1988.8299 1987.8621 1987.1606 1986.4857 1986.1030 1985.6459 1984.7679 1983.9656 1983.7518 1982.9996 1982.3297 1981.5579 1980.9316 1980.4751 1980.0276 1979.1247 1978.7276 1978.0141 1977.4408 1976.7354 1975.9305 1975.4517 1974.9080 1973.9013 1973.3722 1972.8312 1972.2246 1971.6520 1971.0951 1970.4670 1969.7596 1968.9098 1968.3902 1967.6978 1966.9794 1966.4036 1965.8375 1965.5439 1964.7679 1964.0129 1963.3247 1962.8817 1962.2296 1961.7592 1960.7692 1960.2915 1959.6698 1958.8819 1958.1849 1957.5969 1957.2412 1956.5498 1956.0832 1955.5042 1954.6925 1954.1847 1953.4104 1952.7849 1952.1625 1951.4107 1950.9668 1950.1453 1949.5548 1949.4185 1950.1434 1950.7019 1951.7159 1952.0093 1952.9981 1953.1514 1953.9672 1954.7745 1955.0780 1955.8889 1956.5250 1957.4120 1957.9732 1958.6357 1959.0802 1959.5551 1960.3078 1961.0481 1961.3506 1962.4344 1962.7195 1963.2479 1963.9885 1964.6859 1965.2349 1965.8640 1966.3558 1967.3201 1967.6850 1968.6826 1969.2106 1969.4952 1970.2922 1970.8394 1971.5078 1972.4063 1972.9397 1973.3690 1973.9597 1974.5533 1975.1734 1976.1619 1976.6180 1977.4008 1977.8659 1978.4442 1978.9841 1979.8098 1980.1956 1980.8749 1981.7613 1982.5426 1983.1802 1983.8057 1984.2189 1984.8943 1985.2539 1986.0278 1986.4689 1987.1679 1988.0491 1988.6437 1989.2950 1989.7593 1990.2706 1991.0271 1991.5324 1992.1548 1992.9910 1993.6018 1994.0881 1995.0970 1995.4850 1996.2929 1996.5477 1997.5748 1997.7764 1998.7632 1999.0524 2000.1335 2000.7195 2000.9528 2001.6413 2002.4627 2003.0047 2003.4279 2004.3080 2004.8763 2005.6033 2005.9899 2006.9311 2007.4975 2007.8360 2008.6883 2009.4907 2009.7707 2010.3898 2011.4185 2011.6639 2012.5886 2013.2264 2013.7801 2014.5693 2015.0252 2015.3756 2016.3623 2016.7941 2017.5031 2018.1159 2018.5893 2019.3811 2020.0232 2020.4946 2021.2717 2021.7236 2022.6387 2022.9747 2023.6599 2024.5979 2025.0796 2025.8428 2026.1639 2026.9547 2027.5948 2028.2623 2029.0282 2029.2413 2030.0240 2030.8748 2031.4002 2031.8594 2032.7232 2033.3632 2033.6742 2034.4962 2035.1317 2035.5883 2036.2427 2036.8597 2037.5860 2038.2530 2038.6556 2039.6288 2039.8969 2040.7101 2041.4431 2042.2240
2042.0917 2041.4021 2040.4881 2040.1895 2039.4129 2039.0197 2038.0103 2037.6862 2036.9771 2036.2906 2035.6243 2034.9116 2034.1675 2033.7187 2032.9541 2032.5656 2031.9500 2031.1119 2030.3890 2029.7618 2029.3070 2028.7784 2028.1816 2027.3112 2026.8483 2026.2612 2025.5103 2025.0503 2024.3781 2023.4520 2022.9356 2022.5762 2021.7721 2021.1192 2020.6141 2020.0986 2019.4288 2018.6819 2018.0517 2017.4432 2016.5453 2016.3338 2015.5277 2014.8286 2014.1264 2013.4948 2013.1713 2012.2421 2011.8726 2011.0435 2010.2523 2009.6495 2009.0100 2008.7230 2007.7042 2007.2358 2006.6636 2005.8986 2005.6516 2004.7859 2004.2932 2003.6040 2002.7500 2002.3813 2001.8359 2000.8200 2000.5249 1999.8859 1999.2548 1998.3102 1997.6489 1997.4365 1996.7719 1995.9613 1995.1219 1994.8837 1993.9914 1993.5765 1992.8083 1992.1623 1991.8019 1991.0314 1990.1509 1989.7933 1988.8808 1988.5893 1987.5613 1986.9558 1986.7452 1985.9903 1985.2918 1984.4487 1983.9331 1983.4269 1982.8529 1982.1731 1981.6926 1981.0257 1980.1699 1979.4010 1978.9328 1978.5071 1977.9340 1977.2381 1976.2096 1975.9808 1975.4163 1974.3760 1973.8761 1973.2506 1972.5636 1972.0968 1971.4679 1970.9730 1970.1047 1969.3769 1968.6743 1968.1365 1967.7153 1967.1712 1966.1963 1965.5579 1965.2999 1964.2532 1963.8896 1963.3037 1962.5076 1961.9273 1961.3523 1960.5484 1960.0292 1959.6240 1958.8518 1957.9550 1957.6214 1957.0791 1956.3936 1955.7307 1954.9867 1954.6043 1953.8561 1952.9482 1952.3820 1951.7123 1951.2753 1950.8585 1950.2268 1949.6075 1948.5046 1948.0497 1947.9896 1948.8718 1949.2301 1950.0120 1950.6056 1951.0623 1951.7650 1952.5909 1952.9270 1953.9755 1954.5852 1954.9780 1955.8395 1956.4906 1956.7237 1957.7384 1958.2243 1959.0541 1959.3905 1960.3180 1960.4874 1961.2808 1961.7759 1962.4941 1963.4291 1963.8597 1964.5361 1965.2977 1965.9874 1966.5217 1967.0552 1967.6170 1968.5139 1968.8128 1969.4928 1970.3432 1970.7126 1971.3035 1971.8113 1972.8246 1973.2574 1973.7138 1974.4751 1975.3652 1975.9040 1976.4980 1977.1981 1977.8687 1978.3271 1978.8817 1979.5652 1980.1459 1980.8964 1981.6438 1982.3154 1982.5281 1983.5374 1983.9266 1984.6875 1985.2456 1985.6678 1986.4897 1987.0029 1987.7803 1988.6623 1989.1063 1989.4499 1990.3271 1990.9188 1991.7397 1992.3189 1992.9830 1993.3248 1994.2912 1994.7406 1995.4256 1996.2230 1996.7714 1997.1121 1997.9960 1998.4466 1999.3698 1999.6360 2000.2613 2001.2020 2001.4116 2002.2818 2003.0112 2003.5225 2004.0017 2004.6963 2005.4659 2006.2295 2006.7956 2007.3148 2007.8251 2008.4571 2009.4266 2010.0741 2010.4479 2011.3313 2011.5998 2012.1497 2012.9915 2013.7669 2014.3761 2014.9994 2015.6430 2016.0812 2016.8582 2017.5098 2018.0569 2018.8494 2019.1841 2019.8740 2020.5602 2021.0141 2021.6906 2022.5511 2023.0127 2023.5970 2024.3926 2025.0720 2025.5476 2026.3992 2026.7057 2027.6487 2027.8714 2028.8401 2029.3081 2029.9270 2030.6278 2031.0218 2032.0889 2032.6755 2032.9483 2033.9746 2034.1688 2035.1000 2035.6964 2036.4448 2036.7039 2037.6304 2038.2730 2038.6509 2039.3378 2040.2933 2040.4867
2040.4673 2039.8191 2039.2203 2038.6005 2037.9221 2037.6126 2036.7330 2036.3253 2035.6383 2034.8156 2034.1523 2033.8828 2032.9386 2032.1892 2031.9277 2031.2437 2030.5722 2029.9540 2029.4262 2028.4378 2028.2007 2027.4925 2026.8497 2026.0159 2025.2503 2024.7972 2024.0957 2023.7761 2022.7314 2022.2110 2021.5446 2020.8925 2020.2310 2020.0014 2019.0579 2018.7151 2018.0967 2017.2829 2016.8520 2016.2653 2015.4445 2014.7286 2013.9189 2013.7094 2013.0388 2011.9901 2011.8099 2011.1920 2010.3749 2009.5740 2009.2706 2008.4525 2007.6073 2006.9839 2006.6865 2005.7260 2005.5092 2004.4198 2003.9294 2003.1882 2002.9071 2002.0317 2001.3075 2000.8400 2000.1303 1999.5007 1999.0652 1998.4208 1997.7141 1997.1779 1996.7001 1995.7380 1995.4089 1994.7800 1994.0122 1993.4690 1992.7040 1992.0729 1991.3788 1990.8424 1990.1756 1989.5803 1989.1385 1988.4428 1987.8035 1986.8762 1986.3667 1985.6490 1984.9968 1984.6385 1983.7667 1983.1159 1982.7020 1982.0835 1981.3835 1980.7817 1980.1614 1979.5616 1978.6067 1978.3098 1977.5557 1976.8687 1976.0719 1975.5735 1974.7988 1974.1426 1973.9066 1972.9742 1972.3148 1971.9125 1971.3080 1970.4268 1969.9891 1969.2809 1968.8681 1968.2658 1967.5824 1966.8613 1966.2724 1965.3807 1965.1013 1964.3135 1963.7340 1962.9090 1962.2664 1961.7000 1961.3179 1960.6299 1960.0027 1959.4709 1958.8335 1957.8612 1957.1374 1956.5934 1956.1610 1955.3095 1954.9158 1954.2331 1953.6310 1952.7493 1952.4414 1951.6798 1950.8632 1950.1987 1949.5402 1949.1884 1948.4813 1947.7112 1947.3352 1946.8271 1946.5954 1947.1774 1947.6533 1948.5193 1948.9372 1949.9718 1950.4886 1951.0090 1951.5846 1952.1889 1953.0435 1953.4759 1953.9696 1954.9417 1955.5608 1956.0635 1956.9085 1957.2422 1958.0883 1958.6430 1959.1552 1960.0235 1960.3233 1960.9814 1961.9798 1962.4267 1963.0623 1963.5916 1964.1436 1965.1512 1965.4905 1966.0522 1966.6386 1967.2032 1967.8703 1968.8743 1969.4450 1970.0973 1970.3571 1971.1146 1971.7948 1972.6170 1973.0263 1973.6738 1974.4788 1975.1451 1975.4815 1976.1154 1976.8227 1977.4660 1978.2422 1978.8976 1979.1909 1980.1736 1980.4428 1981.4799 1982.1892 1982.3899 1983.0413 1983.6945 1984.5213 1984.9180 1985.9795 1986.2610 1986.8193 1987.8407 1988.0791 1989.0198 1989.6101 1990.3719 1990.9125 1991.3752 1992.2763 1992.6186 1993.2809 1993.8495 1994.4395 1994.9644 1995.9995 1996.4361 1997.1250 1997.7448 1998.2981 1999.1727 1999.5389 2000.0632 2000.7203 2001.4186 2002.1948 2002.9177 2003.2369 2004.0299 2004.9129 2005.4788 2006.0057 2006.7885 2007.3152 2007.9123 2008.6935 2009.0850 2009.6126 2010.3086 2010.8789 2011.7708 2012.2446 2012.8515 2013.7312 2014.2614 2015.0030 2015.4914 2015.7853 2016.8435 2017.5208 2017.9288 2018.4485 2019.2037 2019.8694 2020.4299 2020.9063 2021.6826 2022.1130 2022.7565 2023.5925 2024.1064 2024.8391 2025.3552 2026.2454 2026.9616 2027.4154 2027.9345 2028.4519 2029.1528 2029.7538 2030.5306 2031.0495 2031.6590 2032.5141 2032.8555 2033.9384 2034.2726 2035.0092 2035.8144 2035.9662 2037.0660 2037.4986 2037.9027 2038.9724 2039.1571
2039.1781 2038.6812 2038.0321 2037.6601 2036.9999 2036.2637 2035.7193 2034.7834 2034.0930 2033.5964 2033.1932 2032.5066 2031.5610 2031.2288 2030.5191 2030.0008 2029.2428 2028.6843 2028.0734 2027.0683 2026.7748 2025.9543 2025.2053 2025.0144 2024.1967 2023.4465 2022.9690 2022.0540 2021.4261 2020.9676 2020.2615 2019.6879 2019.0373 2018.4501 2017.9385 2017.2998 2016.5641 2016.1650 2015.3218 2014.8459 2013.8764 2013.6198 2012.6647 2012.1943 2011.7113 2010.6825 2010.4290 2009.5945 2009.0299 2008.2247 2007.5619 2006.9980 2006.6233 2005.6851 2005.3456 2004.6436 2003.7878 2003.4807 2002.7784 2002.1535 2001.2680 2000.8729 1999.9115 1999.5126 1998.8585 1998.3123 1997.5211 1996.8580 1996.4690 1995.6232 1994.8432 1994.4405 1993.7452 1992.9172 1992.7160 1991.8754 1991.2108 1990.8452 1990.2233 1989.1366 1988.9799 1988.0827 1987.6098 1986.9303 1986.0852 1985.5200 1984.8264 1984.1478 1983.7603 1983.2761 1982.6107 1981.8371 1981.0599 1980.6101 1979.9206 1979.2682 1978.4399 1978.1013 1977.4000 1976.8507 1976.0043 1975.2232 1974.7197 1974.0328 1973.3623 1973.1090 1972.3308 1971.6666 1970.9882 1970.3461 1969.9611 1969.3303 1968.6472 1968.0152 1967.3661 1966.8342 1965.8984 1965.4350 1964.4728 1964.0886 1963.6953 1962.9190 1962.0155 1961.4796 1960.8505 1960.3318 1959.4801 1959.1196 1958.3906 1957.7883 1957.1344 1956.4209 1955.8948 1955.1633 1954.5139 1954.1106 1953.3817 1952.6008 1951.8980 1951.3751 1950.5599 1949.9668 1949.4139 1949.1057 1948.4139 1947.6551 1946.9241 1946.6080 1945.6499 1944.9041 1945.0496 1945.8962 1946.3883 1946.8972 1947.5819 1948.2269 1948.7439 1949.6818 1950.1147 1950.9506 1951.2850 1951.9956 1952.6736 1953.2438 1953.8805 1954.6031 1954.9821 1955.9158 1956.5972 1957.0040 1957.5294 1958.3734 1959.2055 1959.4191 1960.0403 1961.1603 1961.3797 1962.3400 1962.9257 1963.6705 1963.9846 1964.6406 1965.5137 1965.9507 1966.5818 1967.3828 1967.7494 1968.5558 1969.3827 1969.8450 1970.3490 1971.2675 1971.8792 1972.5441 1973.0696 1973.3981 1974.2829 1974.8074 1975.5379 1976.1676 1976.6310 1977.4472 1977.8673 1978.3762 1979.4615 1980.1055 1980.6674 1981.2133 1981.9768 1982.6092 1983.1363 1983.7532 1984.1146 1985.0171 1985.5468 1986.1401 1986.9961 1987.4030 1988.0437 1988.7856 1989.2986 1989.9305 1990.4256 1991.2540 1991.7088 1992.5328 1993.1147 1993.8132 1994.6049 1994.9158 1995.8254 1996.5237 1996.9416 1997.4695 1997.9788 1998.7392 1999.2886 2000.2137 2000.6036 2001.4149 2002.0167 2002.6107 2003.1451 2003.6883 2004.7325 2005.2824 2005.9477 2006.6741 2007.0662 2007.5486 2008.3419 2008.7836 2009.7498 2010.2465 2010.7269 2011.6396 2012.0751 2012.6285 2013.6230 2013.8822 2014.8068 2015.1562 2015.8560 2016.4931 2017.3970 2017.7787 2018.3626 2019.0340 2019.8801 2020.4201 2020.8326 2021.5832 2022.4543 2022.9637 2023.3271 2024.0456 2024.6143 2025.5279 2026.2436 2026.7032 2027.1353 2027.7655 2028.7009 2029.1937 2030.0129 2030.2171 2031.2645 2031.5415 2032.2764 2032.8684 2033.7353 2034.1574 2034.6678 2035.3898 2036.0339 2036.8227 2037.5513 2038.1172
2038.0407 2037.4260 2036.8901 2036.0752 2035.2582 2034.7025 2034.4079 2033.4706 2033.0303 2032.2695 2031.4711 2030.8763 2030.5759 2029.8522 2029.2707 2028.4985 2027.7725 2027.3519 2026.4135 2025.8030 2025.1644 2024.6844 2023.8173 2023.5851 2022.6103 2022.3314 2021.3110 2020.9175 2020.4599 2019.5684 2019.1825 2018.4067 2017.6851 2017.1884 2016.2445 2016.0237 2015.3963 2014.3999 2014.0683 2013.3925 2012.8232 2012.0815 2011.4663 2010.7310 2009.9910 2009.4549 2008.9947 2008.1930 2007.7954 2007.1006 2006.0920 2005.9189 2004.9938 2004.3944 2003.9108 2003.1944 2002.7051 2002.1312 2001.3024 2000.5379 2000.0732 1999.1985 1998.5769 1997.8810 1997.6963 1997.0014 1996.2966 1995.7347 1995.0890 1994.1116 1993.7780 1992.7949 1992.5364 1991.8481 1991.1222 1990.4195 1989.7817 1989.3671 1988.7522 1988.1893 1987.2716 1986.7455 1985.8682 1985.6071 1984.8835 1984.3935 1983.6618 1982.6597 1982.2768 1981.4810 1980.8728 1980.1348 1979.5829 1979.2561 1978.4513 1977.7216 1977.0488 1976.6592 1975.8222 1975.3945 1974.6493 1973.9071 1973.3537 1972.9004 1972.0203 1971.3142 1970.9618 1969.9895 1969.7314 1968.9899 1968.1309 1967.5203 1967.1378 1966.3013 1965.6488 1965.3759 1964.5409 1963.9113 1963.1736 1962.6819 1961.7890 1961.2494 1960.4889 1960.2150 1959.3542 1958.7376 1957.9835 1957.7673 1956.7717 1956.2963 1955.6727 1955.1879 1954.1733 1953.6190 1953.0994 1952.2735 1951.8332 1951.3147 1950.6836 1949.7477 1949.5294 1948.4272 1947.8405 1947.4231 1946.6273 1946.0671 1945.7295 1944.9350 1944.3535 1943.6825 1943.8339 1944.4541 1944.7563 1945.4773 1946.0874 1946.7355 1947.1888 1948.0872 1948.5133 1949.4957 1950.0929 1950.8058 1951.1950 1951.6164 1952.3836 1952.9681 1953.5111 1954.4988 1955.1213 1955.6898 1956.2882 1957.1263 1957.5112 1957.9361 1959.0423 1959.4573 1959.9688 1960.8222 1961.2417 1962.1101 1962.4079 1963.2495 1963.6688 1964.3792 1964.9535 1965.7928 1966.4699 1966.8332 1967.5529 1968.5157 1969.1222 1969.4173 1970.3462 1971.0728 1971.5280 1972.2175 1972.8064 1973.2390 1973.8219 1974.8476 1975.1890 1976.1110 1976.5206 1977.2064 1977.9466 1978.5395 1979.0932 1979.8618 1980.3150 1981.1831 1981.4818 1982.4213 1982.6538 1983.3197 1984.2857 1984.5920 1985.4374 1986.0165 1986.8875 1987.2281 1988.0997 1988.5608 1989.1758 1989.8300 1990.3266 1991.3246 1991.7016 1992.5769 1992.8204 1993.8836 1994.2259 1994.9665 1995.7695 1996.3670 1996.7009 1997.4130 1997.8716 1998.8578 1999.4400 2000.0789 2000.3957 2001.2424 2002.0568 2002.2865 2003.1982 2003.8178 2004.5789 2004.9739 2005.8821 2006.1106 2006.7580 2007.5810 2008.0002 2008.9879 2009.2731 2010.1824 2010.5598 2011.4042 2012.1165 2012.4474 2013.4622 2013.8094 2014.6876 2015.1996 2016.0602 2016.5491 2016.9255 2017.5620 2018.4812 2019.0769 2019.4051 2020.4494 2020.7527 2021.6053 2022.1611 2022.6633 2023.3433 2024.2772 2024.9142 2025.1781 2026.1569 2026.7806 2027.3861 2027.8749 2028.5435 2029.1195 2029.7421 2030.4395 2030.8285 2031.7125 2032.4512 2032.8372 2033.6515 2034.3966 2034.6591 2035.3611 2036.2657 2036.6044
2036.9248 2035.8147 2035.1799 2034.5339 2034.1865 2033.3674 2033.0669 2032.2959 2031.4480 2031.0978 2030.5323 2029.8403 2028.8294 2028.2382 2028.0130 2027.2186 2026.3605 2026.0595 2025.4978 2024.8069 2024.0762 2023.1821 2022.7631 2022.2238 2021.5384 2020.5760 2020.4232 2019.3369 2018.8483 2018.4788 2017.3946 2017.1861 2016.2103 2015.6100 2015.2201 2014.5105 2013.7193 2013.3896 2012.6639 2012.0179 2011.4762 2010.4407 2010.0300 2009.5295 2008.8028 2008.2759 2007.5408 2006.9197 2006.0712 2005.5451 2005.1294 2004.4289 2003.8996 2003.0925 2002.5792 2001.7439 2001.2065 2000.6348 2000.1100 1999.4276 1998.5420 1997.8552 1997.5335 1996.9333 1996.0214 1995.1754 1994.7227 1993.9630 1993.2945 1992.9355 1992.0496 1991.4423 1990.9104 1990.1221 1989.6309 1989.0972 1988.3226 1987.9208 1986.9319 1986.3746 1986.1130 1985.4817 1984.8499 1984.0544 1983.1250 1982.7212 1982.2089 1981.5553 1980.6979 1980.1946 1979.3823 1978.8125 1978.4384 1977.5715 1977.2067 1976.4743 1975.7674 1974.8691 1974.3932 1974.0288 1973.2844 1972.4762 1971.6950 1971.4151 1970.6940 1970.1572 1969.2315 1968.7715 1967.9122 1967.6409 1966.6259 1966.2883 1965.3418 1964.7581 1964.5245 1963.4381 1962.8766 1962.6253 1961.8920 1961.3856 1960.4913 1960.0151 1959.2925 1958.7685 1958.1118 1957.1620 1956.9299 1955.9832 1955.4432 1954.9378 1953.9451 1953.6832 1952.7434 1952.3419 1951.7095 1950.8054 1950.4988 1949.8621 1948.8504 1948.4304 1947.7705 1947.0397 1946.5785 1946.0596 1945.2994 1944.7774 1944.0501 1943.1910 1942.7192 1942.2800 1942.0801 1942.7661 1943.1948 1943.9277 1944.8358 1945.1304 1946.0490 1946.7686 1947.3150 1947.8664 1948.3966 1949.1605 1949.5224 1950.4838 1950.7537 1951.4476 1952.2011 1952.8678 1953.3948 1954.2005 1954.9837 1955.2671 1955.9967 1956.6298 1957.4324 1958.0573 1958.6553 1959.0820 1959.9959 1960.3785 1961.2035 1961.7990 1962.2545 1963.0055 1963.8720 1964.2267 1964.7895 1965.5219 1966.2975 1966.8335 1967.6392 1968.1220 1968.7405 1969.2548 1970.1522 1970.4927 1971.3201 1971.8335 1972.6726 1973.2795 1973.8408 1974.6007 1975.3383 1975.5103 1976.6007 1977.1729 1977.5266 1978.2492 1979.1575 1979.6267 1980.3292 1980.6950 1981.5167 1981.9921 1982.6945 1983.2921 1984.1436 1984.4636 1985.4416 1986.0053 1986.7123 1986.9509 1987.9588 1988.6037 1989.0424 1989.8370 1990.3357 1990.9677 1991.3764 1992.4157 1992.8621 1993.6365 1994.3446 1994.8921 1995.1833 1996.2053 1996.6301 1997.0878 1997.8146 1998.6255 1999.2973 1999.7184 2000.3286 2001.1151 2001.6801 2002.4268 2002.8811 2003.5502 2004.5112 2004.9629 2005.4575 2006.0462 2006.8348 2007.3335 2008.2082 2008.9496 2009.4760 2010.0860 2010.5746 2011.4728 2012.1752 2012.5191 2013.2886 2013.9592 2014.4698 2015.0844 2015.5614 2016.4774 2017.1266 2017.6119 2018.4187 2018.6970 2019.4663 2020.2597 2020.9871 2021.5343 2022.3229 2022.7911 2023.2371 2023.8216 2024.7527 2025.5041 2025.9349 2026.3608 2027.2996 2027.9592 2028.4209 2029.1417 2029.8401 2030.1596 2030.7555 2031.8234 2032.3605 2033.0738 2033.4667 2034.2091 2034.5374 2035.5282
2035.4185 2034.8666 2033.9080 2033.3507 2032.6042 2031.9971 2031.4857 2031.0006 2030.4850 2029.4472 2028.9476 2028.3355 2027.6573 2027.1170 2026.3576 2025.8197 2025.1716 2024.5399 2024.1326 2023.3616 2022.7158 2021.8648 2021.3743 2020.7363 2020.1433 2019.4400 2018.8501 2018.1898 2017.6791 2017.0440 2016.2602 2015.8928 2015.2336 2014.4834 2013.7553 2012.9119 2012.6902 2011.9361 2011.0047 2010.4957 2010.0131 2009.1020 2008.6080 2008.1529 2007.2089 2006.8566 2006.0854 2005.5383 2005.0431 2004.1393 2003.6240 2002.7419 2002.4671 2001.9038 2001.1275 2000.6148 1999.6715 1999.2501 1998.6691 1997.8595 1997.3619 1996.6084 1995.9871 1995.3390 1994.4744 1994.2675 1993.1410 1992.7126 1992.1122 1991.7140 1990.6110 1990.0218 1989.6496 1989.0043 1988.4816 1987.4284 1987.2715 1986.4214 1985.5558 1985.0868 1984.5256 1983.9336 1983.4287 1982.3690 1981.7595 1981.1258 1980.6845 1979.7865 1979.5458 1978.6831 1978.1900 1977.7342 1976.8135 1976.1235 1975.5921 1974.6964 1974.4940 1973.8665 1973.0252 1972.2332 1971.9276 1971.0251 1970.4864 1969.7554 1969.4431 1968.3408 1968.1580 1967.1823 1966.6309 1966.2051 1965.5044 1964.5922 1964.0780 1963.3497 1962.7519 1962.3710 1961.4308 1960.9701 1960.1872 1959.8510 1958.8257 1958.4194 1957.6067 1956.9760 1956.5437 1955.8906 1955.2722 1954.5892 1954.0055 1953.2911 1952.9070 1951.8142 1951.3309 1950.7604 1950.3162 1949.3425 1948.9772 1948.1697 1947.4904 1947.0311 1946.4971 1945.8776 1945.0474 1944.2850 1943.6075 1943.0434 1942.6813 1941.8164 1941.2526 1940.8121 1940.7730 1941.1143 1941.7618 1942.4789 1943.1987 1943.7667 1944.1789 1945.2811 1945.8321 1946.4662 1946.9800 1947.8222 1948.0291 1949.0759 1949.6920 1950.2823 1951.0145 1951.3158 1951.9317 1952.6496 1953.3498 1953.9233 1954.4105 1955.2378 1956.0453 1956.7005 1957.0674 1958.0069 1958.6248 1959.0136 1959.7950 1960.5067 1960.8914 1961.6427 1962.1626 1962.6940 1963.3317 1964.0494 1964.7656 1965.4918 1966.2784 1966.5952 1967.2622 1968.0605 1968.8038 1969.2961 1970.0003 1970.6327 1971.1955 1971.5796 1972.4055 1972.8271 1973.7146 1974.2477 1974.9343 1975.4911 1976.4084 1976.9221 1977.6187 1978.0219 1979.0073 1979.4965 1979.8918 1980.8397 1981.3330 1982.1419 1982.8082 1983.1241 1984.0800 1984.5745 1985.0011 1985.8197 1986.5361 1987.1366 1987.4202 1988.5181 1988.9804 1989.4719 1990.3038 1990.8107 1991.5441 1992.3655 1992.8640 1993.2121 1994.1928 1994.6034 1995.3071 1995.8657 1996.7558 1997.3475 1997.6014 1998.2690 1998.8788 1999.7619 2000.2812 2000.9244 2001.4138 2002.1010 2003.0795 2003.5917 2004.1351 2004.9010 2005.2695 2006.1787 2006.5029 2007.6109 2007.9727 2008.4701 2009.0837 2010.1005 2010.5687 2011.2286 2011.9682 2012.3901 2013.1051 2013.5442 2014.4784 2014.7957 2015.5979 2016.5287 2017.1678 2017.5873 2018.1500 2019.0311 2019.5990 2019.9358 2020.6712 2021.2602 2021.8120 2022.8392 2023.2830 2024.0505 2024.5901 2025.2905 2025.7798 2026.2684 2027.1668 2027.8443 2028.4338 2028.8076 2029.4463 2030.4733 2030.8035 2031.4119 2032.1640 2032.8955 2033.3986 2033.9972
2033.9896 2033.3986 2032.7139 2032.2274 2031.4929 2030.7561 2030.2111 2029.6115 2028.9927 2028.1170 2027.7180 2027.1122 2026.6247 2025.5345 2025.0221 2024.6809 2023.9199 2023.4190 2022.6885 2021.9132 2021.2270 2020.6821 2020.1106 2019.2988 2018.5424 2018.3616 2017.6167 2016.8809 2016.3183 2015.4398 2014.9786 2014.0459 2013.7089 2013.1405 2012.3088 2011.9514 2011.2064 2010.6104 2009.5916 2009.3362 2008.6711 2007.7565 2007.1817 2006.6466 2005.9340 2005.2999 2004.7591 2004.3391 2003.7020 2002.6509 2002.3252 2001.6469 2000.6749 2000.3553 1999.5088 1998.8353 1998.2653 1997.7723 1997.3222 1996.2093 1995.6884 1995.4232 1994.5356 1993.9179 1993.4488 1992.5898 1991.8117 1991.2501 1990.7242 1990.1157 1989.4563 1988.7144 1987.9217 1987.7696 1987.0762 1986.2072 1985.8316 1984.9738 1984.3926 1983.6029 1982.8426 1982.5749 1981.9562 1981.0215 1980.5367 1980.0887 1979.0929 1978.7272 1977.9425 1977.3408 1976.7220 1976.2090 1975.3353 1975.0247 1974.2500 1973.2992 1972.9347 1972.3595 1971.4351 1971.1024 1970.3091 1969.4875 1969.2092 1968.4721 1967.6019 1966.9327 1966.3824 1966.0356 1965.1319 1964.6226 1964.1257 1963.2452 1962.5382 1962.1975 1961.4769 1960.9092 1960.2860 1959.6015 1959.0620 1958.0451 1957.5327 1957.1778 1956.2460 1955.5327 1955.2019 1954.5912 1953.8411 1953.1587 1952.3202 1951.8407 1951.1886 1950.8059 1950.0891 1949.1511 1948.4399 1948.2143 1947.5567 1946.5486 1946.1851 1945.4520 1945.0614 1944.3568 1943.6772 1943.1328 1942.4436 1941.4226 1940.8664 1940.1468 1939.7876 1939.1279 1938.8798 1939.7976 1940.5168 1941.0378 1941.7905 1942.4835 1942.8834 1943.6178 1944.3963 1944.6158 1945.6900 1946.1411 1946.6790 1947.4766 1947.9681 1948.7533 1949.4106 1949.7860 1950.7144 1951.3248 1951.7060 1952.4440 1953.1435 1953.8367 1954.6407 1955.0645 1955.5801 1956.3812 1956.7785 1957.7631 1958.1788 1959.0205 1959.5766 1959.9524 1960.6566 1961.2812 1962.2538 1962.9139 1963.1442 1963.9866 1964.6846 1965.3529 1965.6806 1966.2774 1966.9370 1967.9075 1968.1695 1969.0908 1969.7101 1970.3432 1971.0666 1971.4845 1972.2156 1972.6883 1973.3297 1974.0992 1974.9154 1975.4972 1976.0356 1976.8800 1977.5727 1977.9400 1978.5404 1979.0927 1980.0139 1980.5939 1981.0666 1981.9203 1982.2147 1982.9109 1983.8374 1984.5382 1984.7329 1985.5612 1986.2367 1987.0475 1987.6365 1988.2100 1988.8922 1989.4578 1990.0504 1990.5103 1991.5987 1992.0038 1992.4498 1993.4833 1993.9169 1994.2929 1995.0875 1995.7717 1996.4767 1997.0942 1997.5006 1998.4925 1998.9829 1999.5376 2000.2649 2000.6750 2001.4017 2002.4345 2002.9931 2003.5497 2004.2756 2004.9642 2005.2886 2006.1677 2006.6019 2007.4160 2008.0429 2008.4372 2009.2759 2009.6389 2010.6805 2011.3266 2011.9435 2012.5798 2013.2386 2013.6681 2014.4407 2014.9565 2015.6451 2016.2367 2016.9957 2017.6798 2017.9481 2018.8794 2019.5599 2020.2391 2020.7289 2021.1497 2022.1478 2022.6029 2022.9846 2023.7972 2024.5877 2025.2530 2025.7852 2026.5911 2026.8774 2027.8946 2028.2562 2029.1667 2029.6352 2030.3269 2030.8637 2031.2997 2032.2121 2032.6032
2032.7037 2032.0835 2031.3639 2031.0125 2030.0151 2029.7458 2028.9886 2028.1459 2027.7264 2026.9979 2026.5796 2025.5449 2024.9084 2024.4906 2023.7323 2023.0082 2022.2912 2022.1184 2021.4723 2020.6611 2019.7573 2019.4227 2018.4514 2017.8511 2017.4020 2016.7753 2016.2202 2015.5972 2014.8781 2014.1102 2013.7784 2013.0609 2012.1384 2011.8769 2010.8190 2010.4347 2009.8176 2008.8781 2008.4843 2007.6986 2007.2905 2006.7891 2005.9096 2005.1499 2004.8457 2004.0196 2003.5467 2002.6576 2002.1509 2001.2819 2000.6939 2000.0394 1999.4417 1999.0594 1998.3149 1997.4283 1997.0073 1996.4762 1995.9012 1994.8454 1994.5440 1993.7456 1993.2594 1992.2637 1991.8796 1990.9943 1990.8271 1989.8534 1989.0963 1988.5348 1987.8004 1987.3113 1986.5790 1985.8995 1985.4666 1984.7879 1983.9794 1983.5082 1982.8490 1982.1868 1981.5226 1981.1399 1980.5588 1979.7727 1979.1339 1978.6448 1978.0501 1977.2664 1976.7799 1975.7614 1975.4924 1974.6814 1974.2152 1973.2289 1972.6191 1972.1459 1971.2371 1970.9989 1969.9331 1969.5221 1969.0155 1968.1594 1967.6689 1966.7632 1966.5140 1965.6111 1965.2866 1964.2057 1963.7650 1962.9308 1962.6444 1962.0743 1961.3554 1960.6091 1959.9018 1959.2425 1958.4579 1957.7902 1957.4795 1956.7995 1956.2539 1955.4129 1954.8625 1954.3447 1953.6460 1952.9659 1952.3360 1951.5439 1950.8284 1950.5699 1949.7047 1949.2539 1948.4220 1947.7343 1947.2747 1946.7042 1945.6951 1945.3275 1944.6395 1944.1380 1943.3201 1942.6143 1941.8664 1941.4325 1940.6399 1940.1495 1939.5132 1938.9295 1937.9846 1937.5319 1937.7529 1938.1903 1938.7972 1939.4749 1940.2695 1941.0144 1941.5210 1942.2172 1942.7812 1943.3194 1944.0302 1944.8509 1945.3732 1945.8522 1946.3661 1947.3471 1947.6639 1948.4036 1948.9294 1949.7447 1950.3019 1950.9994 1951.7618 1952.2651 1952.6913 1953.5444 1954.0006 1954.7493 1955.7146 1956.3275 1956.6872 1957.3732 1957.8153 1958.5938 1959.4355 1959.9504 1960.5851 1961.3011 1961.7974 1962.2597 1963.3766 1963.8519 1964.6063 1964.9544 1965.5421 1966.2694 1966.9894 1967.3667 1968.3698 1968.6571 1969.4721 1970.2010 1970.8396 1971.6166 1972.1737 1972.5699 1973.1119 1973.7671 1974.4737 1975.3026 1975.8630 1976.5302 1977.3746 1978.0489 1978.2466 1978.9580 1979.5219 1980.3068 1981.1480 1981.6264 1982.4568 1983.1265 1983.3789 1984.1962 1984.9631 1985.2387 1986.0869 1986.8437 1987.2126 1988.1540 1988.5023 1989.3229 1989.9250 1990.6093 1991.0769 1991.6518 1992.4041 1993.1829 1993.5372 1994.4576 1994.9674 1995.8440 1996.2422 1996.7936 1997.5890 1998.3577 1998.7975 1999.5827 2000.2638 2000.7435 2001.3233 2001.8454 2002.8219 2003.5437 2003.9630 2004.6516 2005.1191 2006.1519 2006.6742 2007.3002 2007.7998 2008.6322 2009.3144 2009.6204 2010.3661 2011.2441 2011.8765 2012.2829 2012.9452 2013.5629 2014.4140 2015.0698 2015.6834 2016.3120 2016.9231 2017.1706 2018.1873 2018.4485 2019.5080 2019.8720 2020.5699 2021.2566 2021.7843 2022.4785 2023.2568 2023.9909 2024.3422 2025.1184 2025.9452 2026.1740 2027.1214 2027.4638 2028.0244 2029.0418 2029.4808 2030.1145 2030.7976 2031.6101
2031.6225 2031.0192 2030.1557 2029.6317 2028.8874 2028.3364 2027.7030 2026.7294 2026.3324 2025.8601 2025.1029 2024.2989 2023.8664 2023.1302 2022.5619 2021.7076 2021.1416 2020.6803 2020.0726 2019.4855 2018.5856 2018.0068 2017.2114 2016.7694 2016.0575 2015.3681 2014.7427 2013.9670 2013.5885 2012.7349 2012.0456 2011.5074 2011.0031 2010.3344 2009.4428 2009.0419 2008.1612 2007.7407 2007.2523 2006.6563 2005.6110 2004.9988 2004.4629 2003.6845 2003.3845 2002.5130 2002.0795 2001.3245 2000.8089 1999.8466 1999.2485 1998.6622 1998.2297 1997.2756 1997.0752 1996.2183 1995.4473 1994.7150 1994.1126 1993.8182 1992.8935 1992.1874 1991.8188 1991.2376 1990.5009 1990.0256 1989.3806 1988.3971 1988.0775 1987.2979 1986.7023 1986.0405 1985.3682 1984.4772 1984.1834 1983.2655 1982.5658 1982.1936 1981.6986 1980.8361 1980.1504 1979.4535 1978.9821 1978.2801 1977.8479 1976.8489 1976.3264 1975.8493 1974.9958 1974.5092 1973.6710 1973.2660 1972.4222 1971.9801 1971.2007 1970.5584 1969.9905 1969.3178 1968.8360 1968.0156 1967.3931 1966.6518 1965.9982 1965.5596 1965.1287 1964.2982 1963.4489 1963.2113 1962.2662 1961.6027 1961.0057 1960.2483 1959.9515 1959.0727 1958.3493 1957.8781 1957.0466 1956.6972 1956.1713 1955.3742 1954.5881 1953.9129 1953.5827 1952.7902 1951.9363 1951.2482 1950.5593 1950.0001 1949.6474 1948.7028 1948.1416 1947.5805 1947.1425 1946.3094 1945.6366 1945.2929 1944.5952 1943.5710 1942.9556 1942.4056 1941.6361 1941.0388 1940.7543 1940.0951 1939.4329 1938.6181 1938.1109 1937.2890 1936.8255 1936.1579 1936.2964 1936.8414 1937.1283 1938.1397 1938.8903 1939.1789 1939.7661 1940.5247 1941.3712 1942.0663 1942.3160 1943.0102 1943.8853 1944.1953 1944.8203 1945.6056 1946.3826 1946.8513 1947.7892 1948.3745 1948.9676 1949.2997 1950.2490 1950.6215 1951.3191 1952.0303 1952.7379 1953.2760 1954.2513 1954.6988 1955.2399 1955.7989 1956.3649 1957.2672 1958.0826 1958.5064 1959.0628 1959.9783 1960.2202 1960.9951 1961.5775 1962.1326 1963.1025 1963.6079 1964.2141 1964.7552 1965.6712 1966.0302 1966.5863 1967.6311 1968.0119 1968.7684 1969.1366 1969.9118 1970.4256 1971.2142 1971.8261 1972.6580 1973.0914 1973.8313 1974.5218 1975.1181 1975.7823 1976.3042 1976.8227 1977.7882 1978.1699 1979.0407 1979.6324 1980.1794 1980.8231 1981.4307 1982.1913 1982.7313 1983.5208 1984.1075 1984.8271 1985.5591 1985.8869 1986.4713 1987.3267 1988.0665 1988.4591 1989.0045 1989.9215 1990.3784 1991.3302 1991.6254 1992.3138 1993.2096 1993.5605 1994.3254 1994.7484 1995.6643 1996.4657 1997.0548 1997.6163 1998.1200 1998.6438 1999.4971 1999.9973 2000.5297 2001.3741 2001.9337 2002.4949 2003.0199 2003.7629 2004.7425 2005.2356 2005.8489 2006.3672 2007.2666 2007.7179 2008.3167 2009.0926 2009.7692 2010.2647 2010.8143 2011.7608 2012.0101 2012.7490 2013.4733 2014.0331 2014.8246 2015.5531 2016.2451 2016.7299 2017.5486 2017.7382 2018.5003 2019.2623 2019.7979 2020.3660 2021.3154 2021.7732 2022.5453 2023.1823 2023.5165 2024.3957 2024.8522 2025.6753 2026.4313 2027.1518 2027.6123 2028.3339 2028.8923 2029.2782 2029.9092
2030.2053 2029.6123 2028.7770 2028.4066 2027.6617 2026.9464 2026.4472 2025.6801 2025.1759 2024.1031 2023.5072 2023.2055 2022.5908 2021.5541 2020.9794 2020.4969 2019.7042 2019.1174 2018.3633 2017.8077 2017.3290 2016.8471 2015.9421 2015.3036 2014.8404 2013.9967 2013.5066 2012.5607 2012.1900 2011.4713 2010.8812 2010.0190 2009.6628 2008.8275 2008.3594 2007.8801 2007.0668 2006.3864 2005.7845 2005.0204 2004.4678 2003.7544 2003.0048 2002.3769 2002.0862 2001.0656 2000.7479 1999.9332 1999.1009 1998.8816 1998.2271 1997.6293 1996.8935 1996.1013 1995.7286 1994.9009 1994.1934 1993.7369 1992.8165 1992.0873 1991.7907 1991.0150 1990.4133 1989.6917 1988.9050 1988.2267 1987.9245 1987.1168 1986.7409 1986.0411 1985.1682 1984.5809 1983.8118 1983.4802 1982.4262 1982.2043 1981.2387 1980.9094 1980.0186 1979.3621 1978.6884 1978.3614 1977.3348 1976.8352 1976.4888 1975.7843 1974.9168 1974.3351 1973.5144 1972.9952 1972.1611 1971.7863 1971.1516 1970.3241 1969.9236 1969.1122 1968.6306 1967.7377 1967.4625 1966.4099 1965.9957 1965.4196 1964.7204 1964.2324 1963.5632 1962.7472 1961.9060 1961.2882 1960.7836 1960.1596 1959.3866 1958.9139 1958.2007 1957.7305 1956.9633 1956.2574 1955.6541 1955.3148 1954.2181 1953.9712 1953.2026 1952.6794 1951.9961 1951.1147 1950.4511 1950.2136 1949.2745 1948.5680 1948.1045 1947.6536 1946.9165 1946.3077 1945.4004 1944.6519 1944.0468 1943.5045 1943.0091 1942.1568 1941.7383 1941.2148 1940.5709 1939.9352 1939.0889 1938.3665 1937.6614 1937.0573 1936.3864 1936.1171 1934.9784 1934.7565 1934.6880 1935.3243 1935.6847 1936.5550 1937.3926 1937.9702 1938.6141 1938.8783 1939.5464 1940.5214 1940.9411 1941.5191 1942.4727 1942.7266 1943.5516 1944.2309 1944.8907 1945.4898 1946.3178 1946.9992 1947.1771 1948.2549 1948.5856 1949.2667 1949.9928 1950.4906 1951.3025 1951.7281 1952.6703 1952.9995 1953.9596 1954.2905 1954.8572 1955.8630 1956.1349 1957.2057 1957.6025 1958.1741 1958.9054 1959.5096 1960.1773 1960.6199 1961.4179 1962.2820 1962.5832 1963.3407 1964.1571 1964.9087 1965.5322 1965.8701 1966.4835 1967.1169 1967.7768 1968.8007 1969.3002 1970.0232 1970.4886 1971.2293 1971.5353 1972.4899 1972.8505 1973.9316 1974.1201 1975.0094 1975.8384 1976.2442 1976.7737 1977.4031 1978.0696 1978.9349 1979.4108 1980.2605 1980.6700 1981.3770 1981.8532 1982.5880 1983.1749 1983.8660 1984.5111 1985.0315 1986.0423 1986.7585 1987.1652 1987.6486 1988.3423 1989.1011 1989.8129 1990.1768 1991.0112 1991.4563 1992.4543 1992.6788 1993.8092 1994.1087 1994.8202 1995.3262 1996.0810 1996.6817 1997.5068 1998.0296 1998.7674 1999.0915 1999.9426 2000.6786 2001.2687 2002.0885 2002.4250 2002.9948 2003.6475 2004.4544 2005.1993 2005.7361 2006.4840 2006.8149 2007.5008 2008.5264 2009.0652 2009.6638 2010.0392 2010.6307 2011.3053 2012.0350 2013.0256 2013.4940 2014.0733 2014.6708 2015.1794 2015.8483 2016.7197 2017.5154 2017.7232 2018.7358 2018.9981 2019.7916 2020.7271 2021.2046 2021.7681 2022.2485 2023.0336 2023.8883 2024.2467 2025.0451 2025.7512 2026.1080 2026.7679 2027.7593 2028.0053 2028.6190
2029.0169 2028.3490 2027.3190 2026.7723 2026.3959 2025.7125 2024.8629 2024.1325 2023.6372 2022.8419 2022.3769 2021.9312 2020.9564 2020.6415 2019.8491 2019.0444 2018.6755 2017.9239 2017.1589 2016.6563 2015.8164 2015.4315 2014.4481 2014.0551 2013.1720 2012.5628 2011.9916 2011.5825 2010.8644 2010.2037 2009.7258 2008.6457 2008.0857 2007.7849 2007.1752 2006.2537 2005.5850 2004.8976 2004.3303 2003.8402 2002.9131 2002.5604 2001.9452 2001.2170 2000.6483 2000.0221 1999.1811 1998.4232 1998.1261 1997.4587 1996.7354 1995.9592 1995.6118 1994.9861 1994.1420 1993.4275 1992.8639 1991.9994 1991.2916 1991.0252 1990.1340 1989.4937 1988.7584 1988.2328 1987.9067 1987.1963 1986.1976 1985.6051 1985.1273 1984.3293 1983.9379 1983.1424 1982.6730 1981.9188 1981.2095 1980.6173 1980.0017 1979.2363 1978.6511 1978.1812 1977.2405 1976.8214 1975.9406 1975.3441 1974.8327 1973.9903 1973.4743 1972.7469 1972.2721 1971.5189 1971.0013 1970.3160 1969.5114 1969.2987 1968.3407 1967.8367 1967.1282 1966.2452 1965.8409 1965.3039 1964.7871 1964.1581 1963.2295 1962.6853 1961.8131 1961.2707 1960.7276 1960.2312 1959.4518 1958.8824 1958.1693 1957.2858 1956.6072 1956.2636 1955.5633 1954.7406 1954.4566 1953.6632 1952.8223 1952.5697 1951.7657 1950.8964 1950.3995 1949.8144 1948.9998 1948.7426 1947.6616 1947.3764 1946.8097 1946.0548 1945.1602 1944.4850 1944.0856 1943.1105 1942.5849 1942.0921 1941.3823 1940.9393 1939.9744 1939.6234 1938.6330 1938.0609 1937.7740 1936.7911 1936.3688 1935.7914 1935.1563 1934.3887 1933.5898 1933.3138 1932.9498 1933.6674 1934.2741 1935.1407 1935.8623 1936.4852 1937.1310 1937.6085 1938.1040 1938.7172 1939.5771 1940.2240 1941.0144 1941.3517 1942.1344 1942.8338 1943.4921 1944.0150 1944.3967 1945.3161 1946.1151 1946.7883 1947.1682 1948.0008 1948.2750 1949.2188 1949.6102 1950.3792 1950.9538 1951.7665 1952.1823 1953.0311 1953.8036 1954.4203 1954.7657 1955.7172 1956.0640 1956.6711 1957.4317 1957.9332 1958.6494 1959.3671 1960.2604 1960.7434 1961.3232 1961.8112 1962.7085 1963.3837 1964.0122 1964.7790 1965.1466 1965.9034 1966.6078 1967.1784 1967.6486 1968.3741 1968.9814 1969.6909 1970.3464 1971.1304 1971.4557 1972.3517 1972.8854 1973.5240 1974.3867 1974.9263 1975.4991 1976.2863 1976.9827 1977.4837 1978.0394 1978.5995 1979.5128 1980.0772 1980.3749 1981.4747 1981.8104 1982.3607 1983.1295 1983.6183 1984.5804 1985.0430 1985.9432 1986.4767 1987.2388 1987.7755 1988.1757 1989.2062 1989.5992 1990.2023 1990.7793 1991.6611 1991.9482 1992.7690 1993.2394 1994.2946 1994.7763 1995.5710 1996.2108 1996.9198 1997.1559 1998.0443 1998.4799 1999.0741 2000.0054 2000.7277 2000.9742 2002.0092 2002.4288 2003.0173 2003.5218 2004.3252 2005.1730 2005.5735 2006.2260 2007.1433 2007.4168 2008.4244 2009.0783 2009.2915 2010.3158 2010.7517 2011.5728 2011.9695 2012.5392 2013.5548 2014.2317 2014.6638 2015.4541 2015.8619 2016.3699 2017.1863 2017.7432 2018.3451 2018.9695 2019.5860 2020.2570 2020.9526 2021.6688 2022.3306 2022.9211 2023.6865 2024.1853 2024.7258 2025.3740 2026.0939 2026.9633 2027.5118
2027.2229 2026.8724 2026.2776 2025.6163 2024.8962 2024.1670 2023.4187 2023.0058 2022.5338 2021.8316 2021.0113 2020.4226 2019.6534 2019.1072 2018.5911 2017.5733 2017.0153 2016.4560 2016.1150 2015.2955 2014.4403 2013.8127 2013.3457 2012.7777 2011.8358 2011.5682 2010.6988 2010.0603 2009.4503 2008.7772 2008.2665 2007.3306 2006.6570 2005.9898 2005.5629 2005.1038 2004.5473 2003.8574 2002.8625 2002.5447 2001.8147 2001.1903 2000.4801 1999.8258 1998.9061 1998.5816 1997.7846 1997.4486 1996.6930 1996.0635 1995.3359 1994.4781 1994.2513 1993.1294 1992.5912 1992.1496 1991.5390 1990.6054 1990.3501 1989.6201 1988.6127 1988.2603 1987.6924 1986.7083 1986.3804 1985.7582 1985.1136 1984.4354 1983.5030 1982.9810 1982.2710 1982.0084 1981.3258 1980.4263 1979.9743 1979.1641 1978.6813 1977.8410 1977.2039 1976.8265 1976.1386 1975.5121 1974.5334 1974.2966 1973.1650 1972.7568 1972.0143 1971.3072 1971.0631 1970.4340 1969.3723 1968.8230 1968.0718 1967.8051 1967.1119 1966.3490 1965.9012 1964.8424 1964.3238 1963.6820 1963.1028 1962.5221 1961.9315 1961.1759 1960.6067 1959.8400 1959.0823 1958.4887 1957.7752 1957.4156 1956.7118 1956.1797 1955.1638 1954.5405 1954.0451 1953.6297 1952.6750 1952.0332 1951.3285 1950.7368 1950.4269 1949.7626 1949.1177 1948.4517 1947.4308 1947.1373 1946.4259 1945.7988 1945.1623 1944.2805 1943.8550 1943.0654 1942.6356 1941.7689 1941.4759 1940.6553 1940.1059 1939.3431 1938.5569 1937.9971 1937.4132 1936.8004 1935.9121 1935.3431 1934.6259 1934.2946 1933.7344 1933.0330 1932.4257 1931.3925 1931.6340 1932.4128 1932.8930 1933.2925 1934.2908 1934.8800 1935.5276 1936.0943 1936.6652 1937.3429 1937.9193 1938.6375 1939.1091 1940.0166 1940.3478 1941.1836 1941.7632 1942.4581 1943.1232 1943.8562 1944.2778 1945.3242 1945.7357 1946.4039 1946.8895 1947.7486 1948.4219 1949.1480 1949.4948 1950.4185 1950.7829 1951.7361 1952.4067 1953.0062 1953.4847 1954.0416 1954.8716 1955.4039 1955.8208 1956.8968 1957.1987 1957.7755 1958.7410 1959.3232 1959.9119 1960.5548 1961.3231 1961.7362 1962.2824 1963.2766 1963.7530 1964.2016 1965.0773 1965.7885 1966.3193 1967.0147 1967.8506 1968.3606 1969.1309 1969.4158 1970.3001 1970.6244 1971.3123 1971.9809 1972.5184 1973.4380 1973.8504 1974.7019 1975.3076 1975.9538 1976.6640 1977.3826 1978.1261 1978.5505 1978.9959 1979.6256 1980.6542 1981.1080 1981.9141 1982.4630 1983.1208 1983.6886 1984.3480 1985.0793 1985.7590 1986.4840 1986.6771 1987.6840 1988.1670 1989.0804 1989.6509 1990.2203 1990.7427 1991.2713 1991.8287 1992.6400 1993.2039 1993.9263 1994.7355 1995.4236 1995.9412 1996.6757 1997.1848 1997.8027 1998.4368 1999.3844 2000.0241 2000.2248 2001.1263 2001.9344 2002.1587 2002.7845 2003.7930 2004.4985 2004.9215 2005.7847 2006.0350 2006.9071 2007.3251 2008.1415 2008.7218 2009.3163 2009.9691 2010.9659 2011.3173 2011.8404 2012.8783 2013.4870 2013.8235 2014.7690 2015.2247 2015.7199 2016.6222 2017.0336 2017.8911 2018.3442 2019.1928 2019.8619 2020.5494 2020.8487 2021.9085 2022.2024 2023.1709 2023.4864 2024.0657 2025.0366 2025.4044 2026.0252
2026.2090 2025.4771 2024.8936 2023.9802 2023.6400 2022.8162 2022.0492 2021.7793 2021.0228 2020.2538 2019.6163 2019.2141 2018.4562 2017.8214 2017.1444 2016.3117 2016.0433 2015.2873 2014.7040 2013.6807 2013.1669 2012.7938 2012.1344 2011.4051 2010.8056 2010.2692 2009.2994 2008.5118 2008.2831 2007.4737 2006.9287 2006.2576 2005.5589 2004.6475 2004.3127 2003.8210 2003.0146 2002.1104 2001.4833 2000.9676 2000.1687 1999.7783 1998.9375 1998.4866 1997.5446 1996.9958 1996.3991 1995.9319 1995.4006 1994.7432 1993.7134 1993.3003 1992.7558 1992.2159 1991.3661 1990.5759 1989.9231 1989.3924 1988.8629 1988.1694 1987.6005 1986.7399 1986.3837 1985.3006 1985.0701 1984.3784 1983.3677 1982.7638 1982.5443 1981.7651 1981.0570 1980.3096 1979.8148 1978.8388 1978.6220 1977.9653 1977.2422 1976.2564 1975.9359 1974.9877 1974.5807 1974.0656 1973.1874 1972.7244 1972.0844 1971.2651 1970.6791 1970.2488 1969.4256 1968.5747 1968.1577 1967.4120 1966.6017 1965.9661 1965.4938 1964.9331 1964.2734 1963.8238 1962.7271 1962.0850 1961.6620 1961.1812 1960.2764 1959.7821 1959.1255 1958.6389 1957.9066 1957.0810 1956.4854 1955.7170 1955.1831 1954.3521 1954.0612 1953.2256 1952.5641 1951.9990 1951.2829 1950.8909 1949.8805 1949.5393 1948.5284 1948.1617 1947.3787 1946.9552 1946.4390 1945.4862 1945.1117 1944.1199 1943.5598 1943.1486 1942.3112 1941.6650 1941.1845 1940.3461 1939.6231 1938.9004 1938.4332 1937.6850 1937.3460 1936.3120 1936.0804 1935.3358 1934.6304 1933.9714 1933.3922 1932.8763 1932.0921 1931.6056 1930.7748 1929.9844 1930.3035 1930.7678 1931.5220 1932.1143 1932.6984 1933.0753 1933.7988 1934.4530 1935.0945 1935.7467 1936.7490 1937.2264 1937.7508 1938.2877 1938.9627 1939.8332 1940.3692 1941.0801 1941.4766 1942.4699 1943.0644 1943.6289 1944.4028 1945.0587 1945.7682 1946.1068 1946.8987 1947.3149 1947.9238 1949.0191 1949.3037 1950.2244 1950.6072 1951.4842 1952.2443 1952.8641 1953.0800 1953.7722 1954.7046 1955.4174 1955.9067 1956.6426 1957.0396 1957.8634 1958.4161 1958.8826 1959.8212 1960.4457 1960.9505 1961.7957 1962.3860 1963.1888 1963.5738 1964.0594 1965.1017 1965.6658 1966.4178 1967.0060 1967.2709 1968.0496 1968.6620 1969.6536 1970.0257 1970.6014 1971.5627 1972.2118 1972.8295 1973.4075 1973.9024 1974.7290 1975.3767 1975.8172 1976.6000 1977.0540 1977.9605 1978.4499 1979.2907 1979.6604 1980.1940 1981.1710 1981.7076 1982.2399 1982.7992 1983.5053 1984.4320 1984.6642 1985.5734 1986.3612 1986.7958 1987.2613 1988.3257 1988.8251 1989.4324 1989.9527 1990.6924 1991.2550 1991.9452 1992.6582 1993.0471 1994.0888 1994.7660 1995.1331 1996.0255 1996.4719 1997.1173 1997.7395 1998.2342 1999.0539 1999.9222 2000.4362 2001.0920 2001.6815 2002.2576 2003.0556 2003.6211 2004.3819 2004.8692 2005.7331 2006.1750 2007.0115 2007.3804 2008.1217 2008.5618 2009.1764 2009.9223 2010.7453 2011.4225 2012.0133 2012.4671 2013.3151 2014.0286 2014.6561 2015.3146 2015.8738 2016.5291 2017.3698 2017.7671 2018.4395 2019.1000 2019.7701 2020.3818 2020.9753 2021.4601 2022.3599 2023.0269 2023.7820 2024.1887 2024.7945
2024.6395 2024.0255 2023.5001 2022.8660 2022.2640 2021.4675 2020.8570 2020.2147 2019.4809 2018.8069 2018.3146 2017.4841 2017.2839 2016.5653 2015.5994 2015.1585 2014.7505 2014.0063 2013.0696 2012.5386 2012.0406 2011.0523 2010.5195 2009.8839 2009.2676 2008.6641 2008.0050 2007.4341 2006.7167 2006.2397 2005.3819 2004.8480 2004.0183 2003.4255 2003.1144 2002.2472 2001.3629 2001.0385 2000.3033 1999.4497 1999.0624 1998.1668 1997.5498 1997.2911 1996.5649 1995.7685 1995.1493 1994.4702 1993.6876 1993.0434 1992.6309 1991.9452 1991.4192 1990.5198 1990.1650 1989.3871 1988.8380 1988.1274 1987.5499 1986.5539 1986.0928 1985.2153 1984.5356 1984.1614 1983.4362 1982.6012 1982.1692 1981.5430 1981.0058 1980.2393 1979.5384 1979.0736 1978.3079 1977.8764 1977.2580 1976.4366 1975.5231 1975.1942 1974.6475 1973.8930 1973.0809 1972.4460 1971.7839 1971.1958 1970.4365 1969.6780 1969.0927 1968.5181 1967.9339 1967.2812 1966.5954 1966.1418 1965.4551 1964.9682 1964.2395 1963.4574 1962.9973 1962.3303 1961.6460 1960.9492 1960.2087 1959.6483 1958.7951 1958.0997 1957.6794 1957.2256 1956.4568 1955.7611 1954.9132 1954.5960 1953.7463 1952.9978 1952.5462 1951.7918 1951.2935 1950.5015 1950.0881 1949.0055 1948.8341 1948.0940 1947.3065 1946.4406 1946.0777 1945.3740 1944.7852 1943.9217 1943.1841 1942.7731 1942.0319 1941.3638 1940.9387 1940.2835 1939.4775 1938.9580 1938.0172 1937.8097 1936.9685 1936.1828 1935.7197 1935.0509 1934.4238 1933.8458 1933.1152 1932.3704 1931.5633 1931.1977 1930.6992 1929.7645 1929.1802 1928.4277 1928.6452 1929.1160 1930.0229 1930.6218 1931.1308 1931.8219 1932.4689 1933.0864 1933.5426 1934.5528 1935.1092 1935.9228 1936.5077 1936.7555 1937.7439 1938.0360 1938.7149 1939.5024 1940.0513 1940.7819 1941.4373 1942.2848 1942.9558 1943.4657 1944.3274 1944.8331 1945.2377 1945.8371 1946.4144 1947.1829 1947.7732 1948.4233 1949.4002 1949.9499 1950.4203 1951.1785 1951.8390 1952.4306 1953.2650 1953.6508 1954.3579 1955.2111 1955.5492 1956.5152 1956.9995 1957.7207 1958.2245 1958.7713 1959.6047 1960.2172 1960.8164 1961.6205 1962.0231 1962.6457 1963.2703 1964.0669 1964.5093 1965.2787 1966.0017 1966.7894 1967.1905 1967.7708 1968.4848 1969.4598 1970.1296 1970.3428 1971.0462 1971.7487 1972.5881 1972.9314 1973.6916 1974.3142 1975.0101 1975.5065 1976.2517 1977.0450 1977.7847 1978.1116 1979.1081 1979.4989 1980.1978 1980.6948 1981.4526 1981.9518 1983.0393 1983.6888 1984.0182 1984.9325 1985.5221 1986.3184 1986.9584 1987.4212 1987.8918 1988.8192 1989.3646 1989.8678 1990.5662 1991.4452 1992.0597 1992.6977 1993.3413 1993.5779 1994.6938 1995.2445 1995.5503 1996.3431 1997.1388 1997.5051 1998.5840 1999.0044 1999.8115 2000.2659 2000.7961 2001.7855 2002.0134 2002.9358 2003.6773 2004.3892 2004.6086 2005.4148 2005.8669 2006.5871 2007.6434 2007.9807 2008.7749 2009.4389 2009.9699 2010.3789 2011.2425 2012.0447 2012.5257 2012.9633 2013.9311 2014.2883 2014.9173 2015.9156 2016.2778 2017.0835 2017.8441 2018.3751 2018.9009 2019.5679 2020.2270 2021.1326 2021.7987 2022.3131 2022.7048 2023.6942
2023.6606 2022.8355 2022.1511 2021.7676 2021.0355 2020.2256 2019.7397 2019.0241 2018.4958 2017.9458 2016.9914 2016.2441 2015.8000 2015.0063 2014.6079 2013.5755 2012.9674 2012.4835 2011.9602 2011.0829 2010.8118 2009.9560 2009.3465 2008.7091 2008.0153 2007.3742 2006.4549 2006.0633 2005.4771 2004.6723 2003.9727 2003.4953 2002.8750 2002.1895 2001.4922 2000.8494 2000.1306 1999.6395 1998.9172 1998.0516 1997.6605 1997.1791 1996.2174 1995.8615 1995.1036 1994.3663 1993.6923 1993.0710 1992.6666 1991.9864 1991.3649 1990.6212 1989.7145 1989.2310 1988.6051 1987.9168 1987.2172 1986.5306 1985.8341 1985.2427 1984.4384 1984.2107 1983.2961 1982.8520 1981.9262 1981.4680 1980.9731 1980.1468 1979.2531 1979.0271 1978.1111 1977.4019 1976.6742 1976.2711 1975.8431 1974.9378 1974.3939 1973.4281 1973.2013 1972.2498 1971.6697 1971.1872 1970.3230 1969.8651 1969.0092 1968.5901 1968.0408 1967.1365 1966.7983 1965.9239 1965.2641 1964.7468 1964.1093 1963.1460 1962.7154 1962.2600 1961.6113 1960.7433 1959.8657 1959.3505 1958.5536 1958.2180 1957.7158 1956.8153 1956.2567 1955.7935 1954.7512 1954.2101 1953.8055 1952.9527 1952.1448 1951.4242 1951.2404 1950.5997 1949.6610 1948.8335 1948.2346 1947.6549 1947.3074 1946.4210 1945.6721 1945.1660 1944.7048 1943.8075 1943.4599 1942.6558 1941.9958 1941.2458 1940.8994 1940.2363 1939.1472 1938.6459 1938.1735 1937.6495 1936.5680 1936.1488 1935.5646 1934.9011 1934.1516 1933.5985 1932.9655 1932.3490 1931.3543 1931.1038 1930.3289 1929.7198 1928.8980 1928.4056 1927.8360 1927.0002 1927.0452 1927.5641 1928.5814 1928.8175 1929.8948 1930.0946 1930.8020 1931.6973 1932.1996 1932.8930 1933.7898 1934.3495 1935.0095 1935.7102 1936.2637 1936.5997 1937.4489 1937.8468 1938.7880 1939.2263 1939.7988 1940.7359 1941.4672 1942.0214 1942.5644 1943.3454 1944.1007 1944.5591 1945.3301 1945.8320 1946.2870 1946.8960 1947.6889 1948.2611 1948.9122 1949.6657 1950.1516 1950.7974 1951.6981 1952.3915 1953.1827 1953.8063 1954.4908 1955.0407 1955.3316 1956.3047 1956.8732 1957.4469 1958.2853 1958.6876 1959.4758 1959.9144 1960.5623 1961.5649 1962.2590 1962.8247 1963.5519 1964.1078 1964.4216 1965.0168 1966.0322 1966.3440 1967.0221 1967.9777 1968.6266 1969.1834 1969.6787 1970.3780 1971.2088 1971.8994 1972.5797 1973.1408 1973.4372 1974.5598 1975.1849 1975.8057 1976.0622 1977.0251 1977.7338 1978.1478 1978.7972 1979.5910 1980.0254 1980.5626 1981.4432 1981.9465 1982.5131 1983.4900 1984.0901 1984.5192 1985.1892 1985.8054 1986.5939 1987.4796 1987.8101 1988.7972 1989.0577 1989.6826 1990.4026 1991.1829 1991.7334 1992.4383 1992.9562 1993.5221 1994.3311 1995.0475 1995.6546 1996.4759 1996.7616 1997.5662 1998.2851 1999.0947 1999.3950 2000.2386 2000.7456 2001.3577 2002.3264 2003.0384 2003.4673 2004.2593 2004.5069 2005.2446 2005.7983 2006.6714 2007.1708 2007.9295 2008.5564 2009.4778 2010.0564 2010.5161 2011.0144 2012.0716 2012.4589 2013.2456 2014.0251 2014.3912 2015.0337 2015.7950 2016.3790 2017.2414 2017.5450 2018.4970 2019.1256 2019.5122 2020.0415 2020.8841 2021.7745 2022.1898
2022.1838 2021.4898 2020.9150 2020.2515 2019.5436 2018.9929 2018.5118 2017.4499 2017.2296 2016.2245 2015.6399 2014.9271 2014.2059 2013.6056 2012.8890 2012.4488 2011.5854 2011.0397 2010.5678 2009.9335 2009.3387 2008.3809 2008.0069 2007.2075 2006.7894 2006.0354 2005.3017 2004.4857 2004.1965 2003.1879 2002.7524 2002.2118 2001.6305 2000.6083 1999.9641 1999.4010 1998.9970 1998.0083 1997.4334 1996.8874 1996.0900 1995.4350 1995.0248 1994.3949 1993.7400 1992.7892 1992.4261 1991.8629 1990.8422 1990.6145 1989.9285 1988.9589 1988.3897 1988.0428 1987.0325 1986.4378 1985.9395 1985.4094 1984.8150 1984.1747 1983.2925 1982.4343 1982.1522 1981.2618 1980.5194 1980.0175 1979.4585 1978.6240 1977.9344 1977.5758 1976.5976 1976.0611 1975.4066 1974.6165 1973.9844 1973.4122 1972.8745 1972.4569 1971.5239 1970.9617 1970.3133 1969.6565 1968.9913 1968.1465 1967.8703 1967.0015 1966.2958 1965.5608 1965.3080 1964.2939 1964.0096 1963.3410 1962.3866 1961.6807 1961.3234 1960.6924 1960.0322 1959.5117 1958.5894 1958.2293 1957.1372 1956.7250 1955.8401 1955.3409 1954.6289 1954.2732 1953.3521 1952.5775 1952.3476 1951.3605 1951.1002 1950.4333 1949.6479 1948.6747 1948.0539 1947.4210 1946.9314 1946.5268 1945.4528 1944.7910 1944.2210 1943.7270 1942.9396 1942.1928 1941.7109 1940.9542 1940.3716 1940.0457 1939.0173 1938.5355 1937.7124 1937.1521 1936.5438 1935.9179 1935.4330 1934.4975 1933.8632 1933.1930 1932.8005 1932.1081 1931.1845 1931.0022 1929.9763 1929.2653 1928.9754 1928.1944 1927.4931 1926.9414 1926.2150 1925.5264 1925.3639 1926.1699 1926.6625 1927.3275 1928.2367 1928.7564 1929.4017 1930.3356 1930.6657 1931.2952 1932.2159 1932.4949 1933.1215 1933.9458 1934.8315 1935.2930 1936.0512 1936.4082 1937.3251 1937.7696 1938.5833 1938.9382 1939.9947 1940.6897 1941.2322 1941.6788 1942.2064 1943.1430 1943.7828 1944.6168 1945.2578 1945.6208 1946.2523 1946.7650 1947.5198 1948.3526 1948.9961 1949.7584 1950.4541 1950.8016 1951.7272 1952.0846 1953.0231 1953.2826 1954.1590 1954.5162 1955.6184 1956.2813 1956.7956 1957.2980 1957.9385 1958.5983 1959.4691 1959.9497 1960.4753 1961.4384 1961.8549 1962.5671 1963.1573 1963.9167 1964.4398 1965.0410 1965.9485 1966.3304 1967.2202 1967.7639 1968.2157 1969.2306 1969.5200 1970.0874 1970.9872 1971.6065 1972.2968 1972.9273 1973.4845 1974.0292 1975.0070 1975.5790 1976.1522 1976.7314 1977.2153 1978.0892 1978.5362 1979.1975 1980.0186 1980.5214 1981.1356 1982.1975 1982.6720 1983.4248 1984.0490 1984.4136 1985.0737 1986.1220 1986.4897 1986.9393 1987.9657 1988.5475 1988.9550 1989.8061 1990.3282 1991.0598 1991.8760 1992.2558 1992.8055 1993.6177 1994.3208 1994.8520 1995.8336 1996.3625 1996.9255 1997.3932 1997.9868 1998.8744 1999.4873 2000.0028 2000.8461 2001.5717 2002.1162 2002.7924 2003.5619 2003.9437 2004.8833 2005.2159 2006.1613 2006.6450 2007.2175 2008.1554 2008.5849 2009.0316 2009.6648 2010.3256 2011.2645 2011.9071 2012.3930 2012.9737 2014.0114 2014.3073 2015.2173 2015.6552 2016.2925 2017.1802 2017.8640 2018.5329 2019.0926 2019.8113 2020.0826 2020.7503
2020.6427 2020.2587 2019.5496 2018.7074 2018.4812 2017.8892 2016.7932 2016.4406 2015.6385 2014.9964 2014.5910 2013.5756 2013.0702 2012.6770 2011.6049 2011.0423 2010.6702 2010.0130 2009.3898 2008.3991 2007.7019 2007.0611 2006.4636 2005.8146 2005.1936 2004.5389 2003.8185 2003.2807 2002.7169 2002.0499 2001.5420 2000.9232 1999.9842 1999.3298 1998.7111 1997.9377 1997.4563 1997.0528 1996.3458 1995.5276 1994.8544 1994.4730 1993.4344 1992.9409 1992.3185 1991.7422 1990.9924 1990.1214 1989.8600 1989.1981 1988.1475 1987.8928 1987.3021 1986.3618 1985.7917 1985.0448 1984.3154 1984.0048 1983.2809 1982.7469 1982.0851 1981.4559 1980.6562 1980.0237 1979.3747 1978.7210 1978.0884 1977.5203 1976.5283 1976.0494 1975.1998 1974.7611 1973.9338 1973.4015 1972.7330 1972.0558 1971.3574 1971.0711 1970.0877 1969.5942 1968.6555 1968.4305 1967.6019 1966.7369 1966.5071 1965.6168 1965.0253 1964.4543 1963.9371 1962.8985 1962.5889 1961.9264 1961.0132 1960.2661 1959.8427 1959.1687 1958.3320 1958.0275 1956.9692 1956.6773 1956.0508 1955.1217 1954.6267 1953.7749 1953.3346 1952.5848 1952.1513 1951.2023 1950.8302 1950.2643 1949.3434 1948.9977 1948.0563 1947.5767 1946.7434 1946.0132 1945.5076 1944.6675 1944.3273 1943.5865 1942.7281 1942.4584 1941.4116 1940.7832 1940.0570 1939.7105 1938.9036 1938.4336 1937.6709 1937.0624 1936.6555 1935.5878 1935.0600 1934.5164 1933.9806 1933.3327 1932.5698 1932.0000 1931.0682 1930.5115 1930.0871 1929.4808 1928.7348 1927.7899 1927.4300 1926.5805 1926.2167 1925.3829 1924.5677 1923.9931 1924.2164 1924.5392 1925.5219 1926.1936 1926.4983 1927.3762 1927.8534 1928.5665 1929.0765 1929.9805 1930.4050 1930.9681 1931.6192 1932.5171 1933.3724 1933.6574 1934.5744 1935.2249 1935.8749 1936.2177 1936.8548 1937.7501 1938.5636 1939.1389 1939.8798 1940.4329 1940.7802 1941.5787 1942.2874 1943.0293 1943.3964 1944.2710 1944.6774 1945.2703 1945.9134 1946.8358 1947.3336 1948.0916 1948.9490 1949.2224 1950.1400 1950.5812 1951.4206 1952.1224 1952.6482 1953.3445 1953.7736 1954.5872 1955.4226 1956.1429 1956.4965 1957.2638 1958.0400 1958.5172 1959.0350 1960.0433 1960.5761 1961.3169 1961.6561 1962.3177 1963.1788 1963.4799 1964.2749 1965.2348 1965.5798 1966.4908 1966.8980 1967.4113 1968.4594 1969.0127 1969.6726 1970.1853 1970.7086 1971.7121 1972.0736 1972.6755 1973.6151 1974.2827 1974.9936 1975.3441 1975.9823 1976.7629 1977.1246 1977.7798 1978.5996 1979.4066 1980.1292 1980.4209 1981.2881 1981.7538 1982.3212 1983.3194 1983.6210 1984.5768 1985.0529 1985.7238 1986.4857 1987.1471 1987.6725 1988.2344 1988.8684 1989.6887 1990.5743 1991.1713 1991.7407 1992.1943 1992.8889 1993.8434 1994.4560 1994.7147 1995.6641 1996.2214 1996.7713 1997.2949 1998.0192 1998.7623 1999.4963 1999.9917 2000.4970 2001.3488 2001.9407 2002.8210 2003.4317 2003.8791 2004.7765 2005.2907 2005.8367 2006.6202 2007.1599 2007.9506 2008.6050 2009.2000 2010.0688 2010.6628 2011.1742 2011.9774 2012.4484 2012.8726 2013.6647 2014.3404 2014.9412 2015.7139 2016.4930 2016.8056 2017.7267 2018.4700 2019.0462 2019.5943
2019.3940 2019.0822 2018.2693 2017.4206 2017.0368 2016.3478 2015.7333 2015.2410 2014.3657 2013.5970 2012.8983 2012.1846 2011.6836 2011.3438 2010.3732 2009.6778 2009.2848 2008.2964 2007.9255 2007.2034 2006.3468 2005.9646 2005.3764 2004.6607 2003.9309 2003.4355 2002.6724 2001.8433 2001.3509 2000.7646 2000.0398 1999.1733 1998.8321 1997.9114 1997.3118 1996.7379 1995.8895 1995.3977 1995.0761 1994.3962 1993.6892 1993.0529 1992.2106 1991.5629 1990.9420 1990.5177 1989.8417 1988.7380 1988.2110 1987.4748 1986.8657 1986.2555 1985.8647 1984.9747 1984.5968 1983.5599 1983.2762 1982.2805 1981.7393 1981.2657 1980.4297 1979.6201 1979.1777 1978.6527 1977.8783 1977.3421 1976.8209 1975.9124 1975.3087 1974.5232 1973.7756 1973.1281 1972.7092 1972.1105 1971.1970 1970.5159 1970.1522 1969.3926 1968.6558 1968.0911 1967.4677 1966.7149 1965.9480 1965.7037 1965.0525 1964.2496 1963.6915 1962.9199 1962.3023 1961.5856 1960.7249 1960.1386 1959.8240 1959.1073 1958.5568 1957.9523 1957.2370 1956.3800 1955.7049 1955.1523 1954.5470 1953.7757 1953.2290 1952.6575 1951.6853 1951.0130 1950.7152 1950.0530 1949.0181 1948.5187 1948.1595 1947.2434 1946.7562 1945.8676 1945.4463 1944.5178 1944.1289 1943.5736 1942.5564 1942.2763 1941.6408 1940.8769 1940.3018 1939.4246 1938.6706 1937.9974 1937.4554 1936.7497 1936.1884 1935.4619 1935.1598 1934.0934 1933.8114 1932.8359 1932.3446 1931.5060 1930.9896 1930.4394 1929.5373 1929.0729 1928.6020 1927.8568 1927.1506 1926.2830 1926.0045 1925.3121 1924.2942 1923.7913 1923.2713 1922.4780 1922.6135 1923.2801 1924.0730 1924.5017 1925.0392 1925.5749 1926.4004 1926.9544 1927.7086 1928.3398 1929.0399 1929.5019 1930.3343 1931.2520 1931.4645 1932.4122 1932.9906 1933.7524 1934.0713 1935.0877 1935.5878 1936.0423 1937.0887 1937.6854 1938.0222 1939.0094 1939.6889 1940.1690 1940.9234 1941.6575 1942.0879 1942.5275 1943.4252 1943.9455 1944.8229 1945.5341 1946.1495 1946.5441 1947.1654 1948.1068 1948.7321 1949.2538 1950.0135 1950.3052 1951.4378 1951.8742 1952.5883 1953.0371 1953.8998 1954.3645 1955.3539 1955.8741 1956.5476 1956.9639 1957.8841 1958.2586 1958.8920 1959.5793 1960.1039 1961.1704 1961.4052 1962.2309 1963.1353 1963.3630 1964.1205 1964.7359 1965.7805 1966.0739 1966.5975 1967.6203 1968.0125 1968.7238 1969.2734 1969.9161 1970.7199 1971.6248 1972.0689 1972.8071 1973.2348 1973.8804 1974.7562 1975.2775 1975.8978 1976.4399 1977.4506 1977.8745 1978.3851 1979.1290 1979.9624 1980.6645 1980.9250 1981.7022 1982.4749 1983.0118 1983.6377 1984.4747 1984.9838 1985.6770 1986.3635 1986.8672 1987.7915 1988.5077 1988.8704 1989.4508 1990.3380 1991.0374 1991.4443 1992.2215 1993.0018 1993.3250 1994.1592 1995.0341 1995.5650 1995.8960 1996.9454 1997.2985 1998.1856 1998.6706 1999.6068 1999.9055 2000.5932 2001.2727 2002.1314 2002.4446 2003.3740 2003.9182 2004.8445 2005.0686 2005.6823 2006.7334 2007.1972 2007.9347 2008.7261 2009.2941 2009.7798 2010.4226 2011.2012 2011.8675 2012.5672 2013.2682 2013.8327 2014.4763 2015.0825 2015.7207 2016.3691 2016.8705 2017.8073 2018.4494
2018.0266 2017.6266 2016.8478 2016.1266 2015.8690 2015.0071 2014.1892 2013.7335 2013.0972 2012.5295 2011.5160 2011.3269 2010.3684 2009.7103 2008.9004 2008.6248 2008.0288 2007.1833 2006.6303 2006.0948 2005.0369 2004.7156 2003.8092 2003.2328 2002.7043 2001.7955 2001.1062 2000.5086 1999.8176 1999.2348 1998.6238 1998.2505 1997.1331 1996.9194 1996.1378 1995.5458 1995.0157 1993.8841 1993.5188 1992.8874 1992.3426 1991.7242 1990.9023 1990.2437 1989.4005 1988.6513 1988.2862 1987.6208 1987.1029 1986.1909 1985.5869 1985.1779 1984.1859 1983.9286 1983.1096 1982.3461 1981.6845 1981.1282 1980.4991 1979.8956 1979.2203 1978.5073 1977.6779 1977.3875 1976.5742 1975.8862 1975.1926 1974.7395 1973.9101 1973.2349 1972.3775 1972.0970 1971.1803 1970.8090 1970.2310 1969.2768 1968.5882 1967.9181 1967.6153 1966.8111 1966.2560 1965.2993 1964.7663 1963.9499 1963.5189 1962.9982 1962.3967 1961.2798 1960.7929 1960.4024 1959.5137 1958.8341 1958.0420 1957.4059 1956.8388 1956.0956 1955.4902 1954.7381 1954.1419 1953.5768 1953.2473 1952.1836 1951.8477 1950.9622 1950.1993 1949.7266 1949.1496 1948.5706 1947.9208 1947.3903 1946.6082 1945.6706 1945.1445 1944.3001 1944.1349 1943.4631 1942.4276 1941.6843 1941.1226 1940.7927 1939.9775 1939.1712 1938.8976 1938.0013 1937.4168 1936.4896 1936.0707 1935.3902 1934.7967 1933.9342 1933.5213 1932.9813 1932.1403 1931.6336 1930.7318 1930.1744 1929.4723 1928.6476 1928.3983 1927.7639 1927.0322 1926.3756 1925.4579 1925.0003 1924.0810 1923.5816 1923.0223 1922.4102 1921.4975 1920.8230 1920.9142 1921.8822 1922.4214 1922.8911 1923.8556 1924.1929 1924.7846 1925.5252 1926.3109 1926.6900 1927.6110 1928.1713 1929.0865 1929.3175 1930.0383 1930.7898 1931.4898 1932.1103 1932.9150 1933.6638 1934.3469 1934.5974 1935.3711 1935.8358 1936.5139 1937.4055 1938.1913 1938.6998 1939.3538 1939.9934 1940.5480 1941.0702 1941.8549 1942.4043 1942.9952 1944.0370 1944.4186 1945.2182 1945.9102 1946.7089 1947.2654 1947.5810 1948.4367 1949.1083 1949.5585 1950.4192 1950.9321 1951.5086 1952.2910 1953.0657 1953.8893 1954.3995 1955.0879 1955.6806 1956.2145 1956.8577 1957.4732 1957.9952 1958.7330 1959.6055 1960.2147 1961.0411 1961.5626 1962.3098 1962.7800 1963.2782 1964.2663 1964.8007 1965.5083 1966.1359 1966.6493 1967.2758 1967.7818 1968.5289 1969.5219 1970.2221 1970.6625 1971.4665 1972.1436 1972.4453 1973.3358 1973.8776 1974.4593 1975.3842 1975.7983 1976.6727 1977.0472 1977.5602 1978.3633 1979.3515 1979.7019 1980.2891 1981.0531 1981.5708 1982.3425 1983.0600 1983.5741 1984.3392 1984.8939 1985.4471 1986.4706 1987.1138 1987.4216 1988.1439 1988.9391 1989.4364 1990.2945 1990.6339 1991.5522 1992.0612 1992.7198 1993.5829 1994.2565 1994.9246 1995.1781 1996.0117 1996.5692 1997.4997 1997.9462 1998.5880 1999.5730 2000.0872 2000.6392 2001.2555 2002.0031 2002.7080 2003.2351 2004.1443 2004.5607 2005.0989 2005.7525 2006.7293 2007.2448 2007.9152 2008.5402 2008.9365 2009.6234 2010.4045 2011.1452 2011.9748 2012.1752 2012.9683 2013.4818 2014.3745 2014.9096 2015.4826 2016.0839 2016.8258
2017.1073 2016.4578 2015.7168 2015.1913 2014.2496 2013.9078 2013.0658 2012.2235 2011.8040 2010.8719 2010.3228 2009.9525 2009.2641 2008.4395 2007.9142 2007.0253 2006.6299 2005.8967 2005.1328 2004.6151 2003.7927 2003.4195 2002.7931 2002.0598 2001.3597 2000.5870 1999.9657 1999.4410 1998.8131 1998.1239 1997.1747 1996.5049 1995.8438 1995.2951 1994.7808 1994.2692 1993.4102 1992.8237 1992.2268 1991.5793 1990.6077 1990.1777 1989.4473 1988.9849 1988.0755 1987.5393 1986.9577 1986.1001 1985.5785 1985.0684 1984.2175 1983.3760 1983.1752 1982.2118 1981.7740 1980.7578 1980.3146 1979.6878 1978.7901 1978.3749 1977.4953 1976.9718 1976.3172 1975.7310 1974.8816 1974.3277 1973.5534 1973.3335 1972.6610 1971.7370 1971.0055 1970.4491 1969.8407 1969.0699 1968.6327 1967.8108 1967.2342 1966.5932 1965.8976 1965.5336 1964.4058 1964.1522 1963.1483 1962.7903 1962.0093 1961.4064 1960.5127 1960.0389 1959.3103 1958.9752 1957.8641 1957.6118 1956.6386 1956.1325 1955.3484 1954.9099 1954.3482 1953.6806 1952.7269 1952.2900 1951.7465 1950.9388 1950.4429 1949.3946 1949.0038 1948.3479 1947.5286 1947.2312 1946.4446 1945.7622 1945.2429 1944.3769 1943.7907 1942.9856 1942.2874 1941.9199 1941.1480 1940.6832 1940.0447 1939.1492 1938.3311 1937.6420 1937.1075 1936.4163 1935.8848 1935.0354 1934.4408 1934.1110 1933.2497 1932.7158 1931.8012 1931.5048 1930.4772 1930.1909 1929.4077 1928.9479 1928.0892 1927.4002 1926.8985 1926.3025 1925.5582 1924.5320 1924.2406 1923.7161 1922.9206 1922.1810 1921.6917 1920.7750 1920.1913 1919.3419 1919.6445 1920.2471 1920.7584 1921.3411 1922.3862 1922.9657 1923.3797 1923.8987 1924.9791 1925.4033 1925.8732 1926.9478 1927.1910 1927.8486 1928.7788 1929.3819 1930.1804 1930.5035 1931.3202 1931.8576 1932.5179 1933.2818 1934.0171 1934.3462 1935.3081 1936.0923 1936.4702 1937.4262 1937.9637 1938.3170 1939.0626 1939.8878 1940.6463 1941.2723 1941.7573 1942.4834 1942.9557 1943.4853 1944.4086 1945.1230 1945.5670 1946.3087 1946.8001 1947.8029 1948.4078 1949.1753 1949.8426 1950.3738 1950.8493 1951.3523 1952.2338 1953.0486 1953.3681 1954.1373 1954.6362 1955.4061 1956.3930 1956.7892 1957.3525 1958.1475 1958.5568 1959.5366 1960.1522 1960.9410 1961.5369 1962.0072 1962.7020 1963.4751 1964.2317 1964.8078 1965.1636 1966.0029 1966.6250 1967.3438 1968.1176 1968.7983 1969.4247 1970.1021 1970.4729 1971.0638 1971.7195 1972.2579 1973.3047 1973.9809 1974.6776 1974.9542 1975.6760 1976.4911 1977.2987 1977.9353 1978.5846 1978.9529 1979.8504 1980.4314 1980.9863 1981.7660 1982.2044 1983.0133 1983.7558 1984.4450 1984.6869 1985.4022 1986.1657 1986.6293 1987.6424 1988.4280 1989.0227 1989.6579 1989.9857 1990.6446 1991.5997 1991.9036 1992.8053 1993.6564 1994.1802 1994.4725 1995.3352 1996.1432 1996.4912 1997.2940 1997.8331 1998.7142 1999.5294 2000.1591 2000.6038 2001.3394 2002.1444 2002.3987 2003.1881 2003.7327 2004.3847 2004.9643 2005.9193 2006.6962 2007.1517 2007.5820 2008.3444 2009.2106 2009.6445 2010.5754 2011.2475 2011.8226 2012.5178 2013.2674 2013.4261 2014.4748 2014.8349 2015.3867
2015.6708 2014.7985 2014.3256 2013.6882 2013.0599 2012.5032 2011.7702 2010.8597 2010.3799 2009.6663 2008.8541 2008.1880 2007.9067 2007.2754 2006.5335 2005.5852 2005.0580 2004.3681 2003.8518 2003.0034 2002.2785 2002.0677 2001.3245 2000.7795 2000.0889 1999.2311 1998.7234 1998.0397 1997.1141 1996.4409 1996.1776 1995.3090 1994.5147 1993.7948 1993.4611 1992.5906 1991.9984 1991.5355 1990.6562 1990.0171 1989.2106 1988.8614 1988.3008 1987.3034 1986.8504 1986.3511 1985.3742 1984.6481 1984.0846 1983.5995 1982.9974 1982.0052 1981.5502 1981.1276 1980.1979 1979.6221 1979.0855 1978.3496 1977.5277 1977.1980 1976.4402 1975.8974 1975.2401 1974.3110 1973.6149 1973.1690 1972.4667 1971.7476 1970.9257 1970.2104 1969.5436 1968.9595 1968.3803 1967.6632 1966.9452 1966.3155 1965.7020 1965.4166 1964.3274 1964.0322 1963.1427 1962.4514 1962.0948 1961.3680 1960.6106 1959.8584 1959.1465 1958.6493 1957.9294 1957.3681 1956.5519 1955.9315 1955.3274 1954.4855 1954.0364 1953.4589 1952.7115 1951.8988 1951.6328 1950.9359 1950.3700 1949.3625 1948.9630 1948.0193 1947.7026 1946.9765 1946.3779 1945.6833 1945.0484 1944.0076 1943.4539 1943.0319 1942.1079 1941.6206 1940.8145 1940.1228 1939.4527 1939.2062 1938.2208 1937.6423 1937.0783 1936.1738 1935.5301 1934.8839 1934.2807 1933.5874 1932.9155 1932.5583 1931.7197 1931.3172 1930.6946 1929.6801 1928.9692 1928.3133 1927.8635 1927.3512 1926.3218 1926.0449 1925.0380 1924.4476 1923.7134 1923.1828 1922.5473 1922.2190 1921.2670 1920.7409 1919.8815 1919.5628 1918.4532 1917.8387 1917.8086 1918.9064 1919.3894 1920.0646 1920.7074 1921.4038 1921.8530 1922.5314 1923.4158 1923.8661 1924.8413 1925.1881 1925.6874 1926.4351 1926.9959 1927.9762 1928.5537 1929.0041 1930.0559 1930.4850 1931.0663 1932.0236 1932.7001 1933.1887 1933.9560 1934.5904 1935.2764 1935.5438 1936.4490 1937.0160 1937.9152 1938.5814 1939.0365 1939.4232 1940.4731 1940.7569 1941.4699 1942.4838 1943.1315 1943.6922 1944.1643 1944.6957 1945.6365 1946.0508 1946.9131 1947.5741 1948.1158 1948.5887 1949.5779 1949.9218 1950.5509 1951.5438 1952.2046 1952.5673 1953.2514 1954.0649 1954.4883 1955.1289 1955.8943 1956.8050 1957.3394 1957.8907 1958.6179 1959.2333 1960.0615 1960.6651 1961.2442 1962.1564 1962.8276 1963.0604 1963.7630 1964.6059 1965.4268 1965.8134 1966.3582 1967.3033 1968.0470 1968.6021 1969.1298 1969.5539 1970.5333 1971.2738 1971.5806 1972.2454 1972.8205 1973.5230 1974.3112 1975.0115 1975.7696 1976.4920 1977.1392 1977.5913 1978.2340 1978.7191 1979.6424 1980.3837 1980.9591 1981.3969 1982.0438 1982.8983 1983.3073 1984.3092 1984.6719 1985.2661 1986.3835 1986.9353 1987.6049 1988.2195 1988.9469 1989.2581 1989.8631 1990.7484 1991.2374 1991.8966 1992.7172 1993.3011 1993.9885 1994.5352 1995.1831 1995.7727 1996.5827 1997.2720 1998.0631 1998.5279 1999.1178 1999.8694 2000.3863 2001.3153 2001.8123 2002.4444 2003.1549 2003.7439 2004.5499 2005.3300 2006.0465 2006.7000 2007.3141 2007.8395 2008.1842 2009.0503 2009.6908 2010.5477 2011.1947 2011.6447 2012.4404 2012.9267 2013.5025 2014.2593
2014.2267 2013.6204 2013.2181 2012.4870 2011.5355 2010.9688 2010.4378 2009.7603 2009.0725 2008.4656 2007.7902 2007.3194 2006.2813 2005.9705 2005.2210 2004.3685 2004.0005 2003.2225 2002.7049 2001.9045 2001.2069 2000.7171 1999.8221 1999.1516 1998.3253 1998.0674 1997.4259 1996.6198 1995.9607 1995.3046 1994.7819 1993.8997 1993.2742 1992.6922 1991.8969 1991.4323 1990.8470 1989.9442 1989.2483 1988.9253 1988.2222 1987.5119 1986.5288 1986.0879 1985.6636 1984.6726 1983.9339 1983.6237 1983.0403 1982.1576 1981.4700 1981.0341 1980.0824 1979.3498 1979.0923 1978.0799 1977.5317 1976.9399 1976.3854 1975.7556 1974.9845 1974.5326 1973.5336 1973.0535 1972.3050 1971.4843 1970.8797 1970.5349 1969.9074 1968.8467 1968.4621 1967.7376 1967.0465 1966.2030 1965.5492 1965.0249 1964.4761 1963.6031 1963.0537 1962.4734 1961.6137 1960.9928 1960.6151 1959.9410 1959.3653 1958.4849 1957.9151 1957.2564 1956.3221 1956.0462 1955.1215 1954.6689 1953.8872 1953.5159 1952.4965 1951.9740 1951.4655 1950.6552 1950.1532 1949.3840 1948.6835 1948.2370 1947.4105 1946.8591 1946.0567 1945.2584 1944.6790 1944.1745 1943.4066 1942.5460 1942.1327 1941.3542 1940.6508 1940.3414 1939.7512 1938.6456 1938.2908 1937.3080 1936.7685 1935.9966 1935.3412 1934.9913 1934.2884 1933.7898 1932.9266 1932.4390 1931.6481 1930.9147 1930.0809 1929.8946 1929.1718 1928.4287 1927.7460 1927.0969 1926.4047 1925.5433 1925.0984 1924.6550 1923.8286 1923.1700 1922.5194 1921.8323 1920.9871 1920.3106 1919.7486 1918.9867 1918.2788 1917.6610 1917.3162 1916.7568 1916.5684 1917.0050 1917.9000 1918.6777 1919.1656 1919.6380 1920.3785 1921.0076 1921.7486 1922.5963 1923.0732 1923.7001 1924.6626 1925.0977 1925.8039 1926.6327 1927.0941 1927.4505 1928.2698 1928.8204 1929.6257 1930.5681 1930.8777 1931.5854 1932.3495 1932.7982 1933.6634 1934.0954 1934.9910 1935.3232 1936.1766 1936.7739 1937.6002 1937.9465 1938.7757 1939.4939 1940.2473 1940.6640 1941.2996 1942.0952 1942.9346 1943.6116 1944.0935 1945.0041 1945.2620 1945.9108 1946.6062 1947.5521 1947.9499 1948.5628 1949.3000 1950.2384 1950.5845 1951.1367 1951.8452 1952.4222 1953.3356 1954.0608 1954.8353 1955.4095 1955.9358 1956.4669 1957.0118 1957.8647 1958.5461 1959.1244 1959.9569 1960.7202 1961.0912 1961.6835 1962.4697 1963.0457 1963.6133 1964.5757 1965.0502 1965.5997 1966.6355 1966.9491 1967.8702 1968.2715 1968.9626 1969.8247 1970.1838 1971.0144 1971.4383 1972.5344 1972.9441 1973.8129 1974.0711 1975.0655 1975.6214 1976.0613 1976.8545 1977.3461 1978.0645 1979.0294 1979.5527 1980.1716 1980.9918 1981.5848 1982.0565 1982.7949 1983.5109 1983.8772 1984.5513 1985.5028 1986.1252 1986.9755 1987.3500 1987.9190 1988.5336 1989.3785 1990.2433 1990.5033 1991.2684 1991.7719 1992.8051 1993.1992 1994.1331 1994.6716 1995.2725 1995.8383 1996.7907 1997.2209 1998.0534 1998.5954 1999.0751 1999.7531 2000.7596 2001.0946 2001.9631 2002.3082 2003.2956 2004.0516 2004.6261 2005.3146 2005.9354 2006.6005 2006.9753 2007.6826 2008.5495 2009.0589 2009.4938 2010.4700 2010.9806 2011.6841 2012.3336 2013.1199
